ncols         285
nrows         89
xllcorner     -122.266388889
yllcorner     42.8813888886
cellsize      0.0011111111111859
NODATA_value  -9999
4 5 6 7 9 9 11 12 14 18 21 22 24 25 28 33 40 45 47 48 48 48 50 54 59 63 67 70 75 82 89 95 98 100 100 99 98 98 98 98 99 100 103 105 107 107 111 116 122 128 131 132 135 137 139 140 141 142 143 144 145 146 148 150 151 152 154 155 156 157 158 158 159 160 161 162 163 164 166 168 169 172 175 177 179 180 181 183 185 187 189 190 190 192 193 196 198 200 203 206 207 209 213 217 221 226 232 236 237 245 250 254 255 255 255 255 255 255 255 255 255 255 255 251 245 242 239 242 247 241 230 225 224 221 219 215 214 215 216 223 223 225 221 209 201 199 198 196 195 194 193 192 191 190 189 189 188 187 186 187 189 191 192 194 197 195 183 166 162 165 174 193 202 199 202 206 206 207 206 203 204 202 193 180 169 162 157 148 136 132 131 130 130 129 128 127 126 126 125 125 124 126 129 131 130 123 119 117 113 110 109 107 107 108 110 118 127 123 117 112 104 95 91 88 88 92 98 94 87 85 85 85 85 86 86 87 89 92 94 95 96 97 99 101 101 100 97 94 92 89 86 81 75 68 63 59 55 51 47 46 52 57 63 67 68 70 74 80 81 80 79 77 75 73 69 67 66 65 66 66 66 66 66 66 67
9 11 11 11 11 12 12 13 14 19 24 27 28 29 29 31 34 37 39 41 42 45 50 54 59 64 71 74 77 81 86 91 93 94 95 96 96 97 97 97 98 99 101 102 103 105 107 112 118 122 127 130 132 133 134 135 136 138 140 142 144 146 147 149 151 153 155 156 157 157 158 159 160 161 162 163 164 165 167 169 171 173 175 178 180 182 183 184 186 188 190 191 192 194 195 197 200 202 205 208 210 213 218 221 225 230 237 240 243 249 255 255 255 255 255 255 255 255 255 255 255 255 255 255 254 250 248 250 253 249 231 225 224 219 210 189 184 178 187 188 182 198 218 210 204 202 202 201 200 200 199 196 194 193 192 192 191 191 191 188 181 175 172 173 177 162 143 132 130 132 148 166 183 200 214 212 210 206 206 205 203 199 192 184 176 169 163 153 139 134 133 133 132 131 131 129 129 129 132 134 134 135 137 138 135 128 121 118 116 112 111 110 110 111 116 126 133 130 127 121 108 101 98 96 95 96 99 95 92 91 90 90 91 93 94 94 95 96 98 99 99 98 98 98 97 94 91 88 86 81 76 70 66 61 57 54 52 50 48 51 58 67 81 86 86 86 86 87 86 85 84 83 80 76 73 70 68 67 67 68 69 69 71 71 70
10 11 11 11 12 14 17 20 23 26 30 34 34 35 35 34 35 36 38 40 43 46 51 54 59 66 71 75 77 80 83 87 89 91 93 95 95 96 96 97 98 99 101 102 103 105 109 116 117 118 121 122 124 127 130 132 134 137 140 142 144 146 148 150 152 153 155 156 157 158 159 160 161 162 163 165 165 166 168 170 172 174 176 179 181 183 185 186 188 189 191 193 195 197 198 200 201 204 207 210 213 216 219 224 227 232 238 243 246 252 255 255 255 255 255 255 255 255 255 255 255 255 255 255 255 253 244 233 222 218 203 191 196 187 173 155 146 141 139 141 152 179 198 208 207 206 205 204 199 192 192 186 186 185 179 170 178 171 173 167 152 142 139 139 139 135 127 127 127 127 128 135 155 177 219 220 216 212 209 205 200 196 190 184 177 171 164 154 142 138 136 135 134 133 133 133 134 138 140 139 139 139 139 139 137 132 126 123 120 117 114 113 113 115 123 134 142 139 134 126 122 119 115 111 107 102 101 99 98 98 98 100 102 105 107 106 102 99 98 95 94 92 90 89 88 87 85 82 78 74 70 66 62 61 61 58 55 51 51 56 65 81 90 91 92 91 90 88 87 86 85 84 83 81 78 74 71 70 70 70 71 72 72 73 73
7 8 10 12 17 23 27 30 32 34 36 38 38 38 39 39 40 40 40 42 45 50 53 56 63 70 73 76 80 81 84 87 88 90 93 94 95 96 97 98 99 100 102 103 104 106 109 113 115 115 117 119 122 125 128 132 135 138 141 144 146 148 150 151 153 154 155 156 157 158 159 160 161 162 164 165 166 167 168 171 174 175 177 180 182 184 186 188 190 191 192 194 196 199 201 203 204 206 210 213 216 218 221 224 228 232 238 244 249 254 255 255 255 255 255 255 255 255 255 255 255 255 255 255 243 231 223 203 188 174 165 157 148 137 131 127 127 127 127 127 128 136 163 189 199 208 210 207 188 166 155 147 138 143 143 133 136 137 142 144 128 127 127 127 127 127 127 127 127 127 127 127 138 165 207 216 213 210 207 203 199 194 188 182 175 169 163 154 144 140 139 137 137 137 139 143 145 145 144 143 142 141 141 140 137 134 131 127 124 122 120 116 116 120 131 143 147 145 139 138 137 135 132 126 117 107 105 107 109 111 112 114 113 112 109 103 99 95 93 91 89 87 85 82 81 80 79 77 74 71 66 64 65 64 61 56 53 54 56 62 76 88 92 94 93 92 91 89 88 88 87 86 84 83 82 80 77 75 74 74 74 74 75 75 74
6 11 15 20 25 29 33 35 38 39 39 39 39 40 41 42 43 43 44 45 50 55 62 66 69 75 78 79 80 83 86 87 89 91 93 94 95 95 96 98 99 101 103 104 105 107 109 111 113 115 117 121 123 127 131 134 137 140 143 145 147 149 151 152 153 154 155 156 157 158 159 160 161 162 164 165 166 167 169 170 173 175 178 181 183 186 188 190 192 194 195 196 198 201 203 205 207 209 212 215 218 220 223 226 229 234 239 246 252 255 255 255 255 255 255 255 255 255 255 255 255 244 236 233 222 203 189 170 154 140 132 128 127 127 127 127 127 127 127 127 127 127 132 154 176 197 204 202 176 145 128 127 127 127 127 127 127 127 127 127 127 127 127 127 127 127 127 127 127 127 127 127 137 167 198 211 209 206 204 199 193 189 185 180 172 165 158 151 145 142 141 140 143 150 154 153 151 148 147 145 143 142 143 141 138 136 131 128 126 124 121 118 120 127 139 148 149 146 146 144 144 144 140 132 122 114 114 118 120 121 118 114 111 108 103 98 94 92 90 88 87 85 82 80 78 76 75 73 70 68 68 69 68 66 61 57 58 61 66 76 88 93 95 96 95 94 92 90 90 89 88 88 87 86 84 83 82 80 79 78 78 78 77 76 74
10 17 23 26 30 34 39 41 41 41 40 40 41 42 44 46 46 46 47 48 52 57 63 67 71 76 80 81 81 83 85 86 88 90 92 93 94 95 96 97 99 101 102 103 105 107 109 110 112 115 118 121 125 129 131 134 137 140 143 145 147 149 150 151 152 154 156 157 158 159 160 160 162 163 165 165 166 167 169 173 177 178 180 182 185 187 189 192 195 197 198 199 200 202 205 207 209 212 214 218 221 224 227 231 235 238 242 249 255 255 255 255 255 255 255 255 255 255 255 255 255 218 203 203 194 174 148 137 129 127 127 127 127 127 127 127 127 127 127 127 127 127 127 131 159 176 172 165 159 133 127 127 127 127 127 127 127 127 127 127 127 127 127 127 127 127 127 127 127 127 127 128 149 176 198 204 201 199 196 191 186 182 179 174 167 159 153 149 147 146 145 147 155 161 159 157 153 150 149 147 146 145 144 142 141 137 132 128 126 124 122 121 125 134 146 152 152 153 155 153 150 147 143 135 124 120 122 122 120 116 113 110 108 103 99 95 92 90 88 87 86 84 82 79 78 77 76 74 73 73 72 72 71 67 62 62 66 73 82 91 95 97 98 98 98 96 94 93 92 92 93 92 92 91 89 87 85 84 82 81 80 79 77 75 73
14 22 27 31 35 38 40 41 40 40 40 41 44 49 51 53 53 51 50 51 52 55 60 69 76 77 79 80 81 83 84 85 87 90 91 91 90 91 94 95 96 97 98 101 104 107 108 109 112 115 119 122 126 129 131 133 136 137 138 141 144 146 147 150 154 158 158 159 159 159 160 161 162 163 165 167 169 169 169 174 180 184 186 186 186 188 190 193 196 198 201 204 204 204 206 210 212 214 217 220 224 227 233 236 239 242 247 253 255 255 255 255 255 255 255 255 255 255 255 255 255 207 183 163 152 135 128 127 127 127 127 127 127 127 127 127 127 127 127 127 127 127 127 127 136 140 135 132 131 127 127 127 127 127 127 127 127 127 127 127 127 127 127 127 127 127 127 127 127 127 127 134 158 182 196 198 195 192 189 185 180 176 172 168 164 160 154 152 151 152 153 155 157 161 161 159 155 151 150 148 147 146 144 143 141 137 132 128 125 124 124 125 131 143 153 156 156 158 160 158 156 153 146 135 127 125 123 119 116 114 111 108 104 100 96 94 92 90 89 88 87 84 82 81 81 81 80 79 79 78 77 76 73 69 68 72 78 86 92 96 98 100 100 101 101 100 99 98 97 98 97 97 96 94 93 91 90 89 86 84 82 79 77 75 73
19 24 28 29 30 31 32 34 36 38 39 41 47 54 56 54 52 51 50 51 53 56 65 74 76 76 76 77 80 82 83 84 86 87 89 87 83 83 86 89 90 91 94 98 102 104 104 106 108 112 116 119 122 125 128 131 132 131 132 136 139 143 145 148 155 159 159 158 160 161 161 162 164 165 166 169 173 175 177 178 182 185 189 191 191 191 192 193 196 200 203 206 207 208 209 212 215 217 219 222 225 230 236 240 245 250 254 255 255 255 255 255 255 255 255 255 255 255 255 255 243 193 164 139 128 128 128 127 127 127 127 127 127 127 127 127 127 127 127 127 127 127 127 127 127 127 127 127 127 127 127 127 127 127 127 127 127 127 127 127 127 127 127 127 127 127 127 127 127 127 127 133 148 159 174 190 194 192 188 185 181 176 172 169 166 164 161 159 158 160 166 172 165 164 162 160 157 155 155 153 148 144 140 138 135 133 130 129 128 128 129 133 142 154 160 160 161 162 163 164 162 158 148 138 129 124 121 117 115 113 111 107 103 99 97 95 93 92 90 88 87 86 86 85 85 85 84 84 84 83 82 79 75 71 77 83 87 91 95 99 101 103 104 105 106 106 105 104 104 103 102 100 98 95 93 92 91 91 89 87 84 80 77 74 72
17 18 19 22 25 27 29 32 34 35 36 39 46 49 47 46 46 47 49 51 56 63 68 71 71 72 73 75 80 81 80 80 81 81 80 78 79 80 81 83 86 90 94 97 99 101 101 103 105 109 113 116 120 122 125 126 126 127 130 134 136 138 140 144 148 151 154 158 161 163 164 165 167 168 171 172 173 176 179 182 184 186 190 194 196 197 197 199 200 202 202 204 208 211 213 214 217 220 222 224 226 231 236 243 253 255 255 255 255 255 255 255 236 225 232 226 214 219 244 242 202 184 166 136 127 127 127 127 127 127 127 127 127 127 127 127 127 127 127 127 127 127 127 127 127 127 127 127 127 127 127 127 127 127 127 127 127 127 127 127 127 127 127 127 127 127 127 127 127 127 127 127 128 133 140 166 188 195 190 187 184 180 175 172 171 171 168 164 164 169 179 180 171 167 164 162 160 159 157 154 154 150 143 141 138 136 135 134 134 136 140 147 157 163 163 163 163 164 165 166 166 161 150 138 128 123 120 116 115 113 110 106 103 101 99 97 96 94 91 91 90 89 88 89 89 90 90 89 88 85 82 77 74 73 78 85 90 95 98 102 104 106 108 111 113 115 114 111 110 107 104 100 98 95 93 93 93 92 91 89 86 83 78 74 71
13 15 17 21 25 28 30 31 34 36 39 43 43 42 42 44 45 48 52 56 60 64 65 66 67 69 71 73 74 76 75 74 73 74 75 76 77 79 80 83 87 90 94 96 97 99 100 101 104 107 110 114 116 119 121 122 123 124 126 131 133 134 137 141 145 148 153 159 164 165 166 168 171 174 176 177 177 179 183 187 189 190 192 195 197 201 204 205 207 207 207 208 210 213 216 218 219 222 225 227 228 231 235 242 253 255 255 255 243 222 222 215 201 189 198 203 178 172 183 168 156 150 144 133 127 127 127 127 127 127 127 127 127 127 127 127 127 127 127 127 127 127 127 127 127 127 127 127 127 127 127 127 127 127 127 127 127 127 127 127 127 127 127 127 127 127 127 127 127 127 127 127 127 127 127 132 174 193 194 192 189 183 178 175 176 177 173 170 172 179 188 190 183 175 170 166 162 159 158 160 160 157 156 158 156 154 154 156 157 157 160 165 167 165 164 163 163 164 165 165 162 154 143 132 127 123 120 117 115 113 111 108 105 103 101 100 99 97 98 97 94 93 93 94 94 94 93 90 86 83 81 79 77 75 77 86 92 97 101 104 108 111 115 121 126 129 126 120 114 110 105 101 97 95 94 93 93 93 92 91 88 84 79 73 69
11 15 18 24 28 33 34 35 37 37 37 38 39 39 40 43 50 56 58 59 61 63 64 66 67 68 69 68 68 68 68 67 69 71 73 75 77 79 80 81 84 87 91 94 96 97 99 101 103 106 109 112 114 116 118 120 121 123 124 126 129 133 137 139 143 148 155 160 162 164 167 170 173 178 181 183 185 185 188 191 194 195 197 199 199 202 210 216 214 214 215 213 214 216 218 220 223 226 228 230 232 234 236 240 248 255 255 254 221 194 195 181 170 157 157 169 143 141 143 135 129 128 127 128 127 127 127 127 127 127 127 127 127 127 127 127 127 127 127 127 127 127 127 127 127 127 127 127 127 127 127 127 127 127 127 127 127 127 127 127 127 127 127 127 127 127 127 127 127 127 127 127 127 127 127 127 149 182 186 186 184 186 180 178 179 181 182 182 187 193 195 194 191 182 173 167 162 160 159 160 161 162 164 171 176 176 176 175 174 173 173 172 168 164 162 160 160 161 161 159 153 146 135 129 126 123 120 118 116 114 113 111 108 105 104 104 101 103 103 102 99 98 97 97 97 95 91 88 87 86 86 83 80 79 79 88 95 100 104 109 114 119 126 134 141 144 140 131 119 111 105 101 97 95 94 94 93 92 92 90 86 81 75 70 65
11 13 18 24 31 35 35 34 33 32 33 34 36 37 39 41 48 54 57 58 59 62 64 64 66 68 68 67 64 62 62 64 66 69 74 78 80 81 81 82 84 86 89 92 94 96 99 102 104 107 109 111 113 115 116 118 120 122 123 125 128 131 135 139 145 151 157 160 161 163 167 171 175 179 185 189 189 190 192 195 198 200 204 205 204 205 207 218 222 221 221 219 219 221 223 225 227 229 231 233 235 237 239 242 246 251 251 237 204 173 156 156 133 129 130 130 127 127 127 127 127 127 127 128 127 127 127 127 127 127 127 127 127 127 127 127 127 127 127 127 127 127 127 127 127 127 127 127 127 127 127 127 127 127 127 127 127 127 127 127 127 127 127 127 127 127 127 127 127 127 127 127 127 127 127 127 130 145 141 141 151 174 182 182 184 187 194 197 197 198 197 195 190 180 172 167 164 161 160 161 163 165 169 177 181 181 181 180 179 178 176 172 166 162 158 155 152 151 150 148 144 139 132 128 126 124 122 120 118 116 114 112 110 108 106 105 104 106 106 105 102 102 104 100 96 94 93 91 89 89 88 86 84 83 82 92 97 102 107 113 119 124 130 137 143 147 143 134 123 113 105 100 97 95 94 93 92 92 91 89 84 78 71 67 64
7 11 15 20 25 26 26 26 27 27 30 32 34 36 38 41 47 52 53 52 50 51 54 56 60 61 60 59 60 59 60 61 63 70 76 78 79 79 79 80 83 86 88 90 94 96 98 101 104 106 108 110 112 114 116 117 119 120 122 125 130 134 138 141 147 151 154 157 158 161 166 170 175 180 184 188 191 192 195 200 203 205 207 208 209 213 214 216 222 224 225 225 226 229 232 232 232 234 236 237 238 240 242 245 248 244 220 204 184 146 130 128 127 127 127 127 127 127 127 127 127 127 127 127 127 127 127 127 127 127 127 127 127 127 127 127 127 127 127 127 127 127 127 127 127 127 127 127 127 127 127 127 127 127 127 127 127 127 127 127 127 127 127 127 127 127 127 127 127 127 127 127 127 127 127 127 127 127 127 127 128 138 154 166 184 195 200 203 202 201 198 194 187 178 172 169 167 166 164 165 167 170 176 181 183 183 182 182 181 179 176 170 164 162 161 160 157 152 146 142 138 134 131 129 126 125 124 123 121 119 117 115 113 111 109 107 108 109 108 108 111 112 102 98 96 94 93 92 91 91 90 90 88 86 85 94 100 105 109 115 120 124 129 133 137 140 134 128 123 116 108 101 97 95 93 92 90 90 90 88 84 78 70 66 63
10 13 15 17 19 21 22 24 26 28 30 32 34 36 38 42 46 48 47 44 44 45 47 49 54 55 55 55 55 55 57 58 58 61 66 69 72 74 76 80 84 86 87 89 92 94 98 100 103 104 106 109 111 113 115 117 119 121 124 126 130 134 140 145 146 149 153 155 157 160 164 171 176 181 184 188 194 197 202 206 211 212 213 214 216 220 224 224 223 226 229 233 238 240 239 237 237 238 240 241 242 244 246 248 251 234 207 177 144 127 127 127 127 127 127 127 127 127 127 127 127 127 127 127 127 127 127 127 127 127 127 127 127 127 127 127 127 127 127 127 127 127 127 127 127 127 127 127 127 127 127 127 127 127 127 127 127 127 127 127 127 127 127 127 127 127 127 127 127 127 127 127 127 127 127 127 127 127 127 127 127 127 130 142 184 201 204 208 207 202 197 192 188 181 175 172 171 173 171 172 174 176 179 183 184 184 184 183 181 178 174 171 172 175 175 174 173 166 156 149 143 137 133 130 128 127 127 126 124 123 121 119 117 113 110 110 112 112 112 117 116 110 106 102 99 97 95 94 94 93 94 93 92 90 88 97 103 106 108 112 115 120 123 126 126 125 123 120 117 113 107 103 98 96 95 93 90 86 86 86 84 76 67 60 55
14 15 17 18 19 20 22 23 24 27 30 33 36 37 39 42 42 42 41 41 43 44 46 48 50 51 52 52 52 53 54 55 56 57 58 62 69 73 76 78 80 82 84 88 91 94 96 99 101 104 108 112 113 114 116 118 120 122 126 129 132 137 141 145 146 148 152 155 157 159 164 171 178 186 190 192 197 202 206 213 219 222 225 225 226 228 230 231 231 230 232 237 243 245 244 242 243 243 244 246 248 248 244 238 235 219 191 160 128 127 127 127 127 127 127 127 127 127 127 127 127 127 127 127 127 127 127 127 127 127 127 127 127 127 127 127 127 127 127 127 127 127 127 127 127 127 127 127 127 127 127 127 127 127 127 127 127 127 127 127 127 127 127 127 127 127 127 127 127 127 127 127 127 127 127 127 127 127 127 127 127 127 127 128 140 166 196 205 202 194 190 190 187 182 178 176 175 176 177 178 179 180 181 183 185 186 185 184 182 180 180 181 184 186 187 187 186 184 172 157 147 140 135 133 131 131 130 128 127 126 124 122 120 115 112 113 115 116 123 123 123 123 122 117 111 108 105 102 101 101 101 98 96 93 91 98 105 106 108 109 111 113 116 117 117 117 117 115 113 110 107 104 100 97 94 93 91 87 83 83 80 73 66 59 53
15 16 17 19 22 22 21 21 22 23 29 35 38 38 38 38 36 37 40 42 44 45 46 47 49 49 49 49 49 50 51 53 54 55 57 64 70 73 74 75 77 79 81 84 88 91 93 96 101 107 112 115 118 119 119 120 121 125 130 135 136 139 145 150 152 153 155 158 160 162 168 174 182 188 194 199 203 207 210 215 221 225 228 230 232 233 235 237 236 235 237 243 248 250 249 248 249 248 250 252 247 227 219 204 199 193 182 158 130 127 127 127 127 127 127 127 127 127 127 127 127 127 127 127 127 127 127 127 127 127 127 127 127 127 127 127 127 127 127 127 127 127 127 127 127 127 127 127 127 127 127 127 127 127 127 127 127 127 127 127 127 127 127 127 127 127 127 127 127 127 127 127 127 127 127 127 127 127 127 127 127 127 127 127 127 133 142 157 162 162 170 183 187 182 179 177 177 178 181 183 184 185 185 186 186 187 187 185 184 186 188 188 189 192 195 194 192 189 181 164 154 145 138 136 135 133 132 130 129 127 126 124 121 116 116 118 119 125 128 126 126 126 126 124 122 120 117 113 110 108 106 103 98 93 94 99 103 105 107 108 107 105 105 105 105 106 107 108 110 109 107 104 99 95 93 91 91 88 83 78 75 70 66 60 53
14 15 17 18 23 22 18 20 21 23 26 28 31 31 30 29 30 33 37 40 41 42 44 46 47 46 44 44 46 47 49 50 52 54 57 63 68 71 73 75 76 78 80 82 86 90 92 95 100 104 110 115 119 122 125 127 129 133 138 141 140 139 144 152 155 156 157 161 165 168 171 177 188 196 200 204 208 211 214 218 222 227 230 232 234 239 240 243 243 244 245 249 253 255 255 255 255 255 255 252 240 210 185 175 164 163 157 158 131 127 127 127 127 127 127 127 127 127 127 127 127 127 127 127 127 127 127 127 127 127 127 127 127 127 127 127 127 127 127 127 127 127 127 127 127 127 127 127 127 127 127 127 127 127 127 127 127 127 127 127 127 127 127 127 127 127 127 127 127 127 127 127 127 127 127 127 127 127 127 127 127 127 127 127 127 127 127 127 129 134 144 159 175 184 184 183 183 186 187 187 189 190 190 190 190 189 189 188 187 188 191 192 191 189 190 192 191 186 178 163 154 145 140 138 136 135 133 131 129 128 126 124 121 120 122 124 130 134 130 128 128 127 126 124 122 120 118 115 111 109 107 103 96 96 101 102 103 105 106 106 106 102 100 96 94 93 93 93 94 95 96 96 93 90 90 89 88 86 82 75 72 68 64 59 51
13 14 15 17 18 16 14 17 20 21 23 24 24 25 25 27 29 30 31 32 33 35 38 40 41 41 41 42 44 45 47 48 51 54 59 63 66 70 73 75 76 78 79 80 83 87 93 97 101 104 107 112 117 121 124 125 130 134 139 143 142 141 142 148 152 155 158 163 168 172 175 177 187 198 202 208 215 219 222 225 228 230 232 234 235 242 246 247 249 250 252 255 255 255 255 255 255 255 238 223 213 191 167 144 134 129 131 130 127 127 127 127 127 127 127 127 127 127 127 127 127 127 127 127 127 127 127 127 127 127 127 127 127 127 127 127 127 127 127 127 127 127 127 127 127 127 127 127 127 127 127 127 127 127 127 127 127 127 127 127 127 127 127 127 127 127 127 127 127 127 127 127 127 127 127 127 127 127 127 127 127 127 127 127 127 127 127 127 127 127 128 134 154 184 197 195 193 192 190 190 191 193 195 195 194 193 191 192 191 192 192 192 187 178 174 174 174 175 172 161 149 144 141 138 137 135 134 132 130 128 126 123 124 126 128 136 140 136 133 130 129 128 127 126 123 119 114 111 108 107 105 100 98 102 104 105 104 104 104 103 103 102 100 99 97 94 91 89 88 87 87 86 86 85 86 87 87 86 82 77 73 68 63 57 52
11 10 10 11 11 9 10 12 16 19 20 21 21 23 24 26 28 29 30 31 32 34 35 36 38 39 40 41 43 45 47 50 55 59 62 64 67 71 74 75 77 78 79 80 80 87 96 102 106 107 109 112 117 121 126 130 135 136 139 143 144 144 145 152 159 162 162 167 172 178 182 187 193 199 205 209 216 224 228 233 238 237 236 238 241 248 253 255 255 255 255 255 255 255 255 255 255 240 214 192 177 165 148 131 127 127 127 127 127 127 127 127 127 127 127 127 127 127 127 127 127 127 127 127 127 127 127 127 127 127 127 127 127 127 127 127 127 127 127 127 127 127 127 127 127 127 127 127 127 127 127 127 127 127 127 127 127 127 127 127 127 127 127 127 127 127 127 127 127 127 127 127 127 127 127 127 127 127 127 127 127 127 127 127 127 127 127 127 127 127 127 127 132 156 191 203 200 195 193 193 194 195 196 197 197 196 195 194 194 194 194 192 186 173 166 162 159 157 154 150 146 143 140 138 136 135 133 131 129 127 125 126 129 134 143 146 141 137 134 133 131 129 124 118 114 111 109 109 108 107 105 103 105 106 108 108 106 105 103 102 102 101 100 99 99 98 97 93 90 88 87 86 85 83 83 84 84 83 81 78 75 71 67 61 57
8 6 4 4 4 5 6 7 10 13 15 17 17 20 23 25 27 29 31 32 33 35 36 37 37 38 40 41 43 45 48 51 55 56 58 62 70 75 77 79 79 80 80 81 83 91 98 102 104 106 110 115 120 125 129 135 138 142 144 148 150 152 157 162 166 167 169 174 184 185 190 195 203 208 210 215 221 227 234 241 244 245 245 245 248 252 255 255 255 255 255 255 255 255 255 255 238 213 189 169 149 134 128 127 127 127 127 127 127 127 127 127 127 127 127 127 127 127 127 127 127 127 127 127 127 127 127 127 127 127 127 127 127 127 127 127 127 127 127 127 127 127 127 127 127 127 127 127 127 127 127 127 127 127 127 127 127 127 127 127 127 127 127 127 127 127 127 127 127 127 127 127 127 127 127 127 127 127 127 127 127 127 127 127 127 127 127 127 127 127 127 127 127 133 157 185 200 200 197 197 196 197 197 198 198 198 198 197 197 196 194 189 179 166 161 158 155 152 149 147 144 142 139 137 136 134 132 130 129 128 130 134 141 150 153 149 144 138 135 133 129 123 117 114 112 111 110 109 109 109 109 108 111 110 110 109 107 106 104 102 101 100 99 98 98 98 98 96 93 88 86 85 85 83 80 79 80 80 78 76 73 70 66 63 58
2 0 0 0 0 0 0 3 5 8 9 9 15 20 23 26 28 29 31 32 32 32 32 31 33 38 40 42 43 45 47 49 52 54 57 61 68 75 79 81 82 83 85 87 90 92 95 98 102 107 114 119 123 126 130 133 136 140 147 153 157 162 168 175 179 178 178 185 192 200 201 207 210 215 220 227 230 235 242 249 252 252 253 255 255 255 255 255 255 255 255 255 255 255 255 253 227 199 175 154 133 127 127 127 127 127 127 127 127 127 127 127 127 127 127 127 127 127 127 127 127 127 127 127 127 127 127 127 127 127 127 127 127 127 127 127 127 127 127 127 127 127 127 127 127 127 127 127 127 127 127 127 127 127 127 127 127 127 127 127 127 127 127 127 127 127 127 127 127 127 127 127 127 127 127 127 127 127 127 127 127 127 127 127 127 127 127 127 127 127 127 127 127 127 144 178 203 204 203 202 200 199 199 198 199 200 200 200 198 195 191 184 171 163 160 157 153 150 148 145 143 141 139 137 135 134 132 132 133 134 137 144 154 156 153 150 144 139 137 131 123 118 116 114 113 111 111 111 111 111 111 110 111 112 112 112 109 107 105 103 102 101 99 97 96 96 96 95 94 90 87 84 82 80 79 74 75 75 73 72 70 67 64 61 58
0 0 0 0 0 0 0 0 0 0 0 3 6 7 19 23 27 28 28 27 22 23 25 30 33 36 39 41 43 45 47 50 52 54 57 60 63 70 78 80 83 87 90 91 93 94 96 98 102 108 114 118 122 124 127 132 135 139 144 149 153 160 168 176 182 185 188 194 202 206 214 221 224 224 229 240 249 250 253 255 255 255 255 255 255 255 255 255 255 255 255 255 255 255 253 229 202 185 165 135 127 127 127 127 127 127 127 127 127 127 127 127 127 127 127 127 127 127 127 127 127 127 127 127 127 127 127 127 127 127 127 127 127 127 127 127 127 127 127 127 127 127 127 127 127 127 127 127 127 127 127 127 127 127 127 127 127 127 127 127 127 127 127 127 127 127 127 127 127 127 127 127 127 127 127 127 127 127 127 127 127 127 127 127 127 127 127 127 127 127 127 127 127 127 137 167 199 206 206 204 202 200 199 199 199 200 202 201 198 194 187 177 165 162 160 157 153 150 148 145 143 141 139 138 137 136 136 137 139 143 150 158 159 156 152 147 142 139 133 126 122 119 117 115 114 114 114 113 113 113 113 113 113 114 114 114 114 113 111 109 106 103 100 98 96 95 95 94 93 91 89 85 81 78 75 72 71 70 69 68 66 64 62 61 59
0 0 0 0 0 3 6 8 7 9 10 5 6 11 10 11 12 16 17 19 23 30 34 35 38 39 41 41 43 45 49 53 56 58 60 61 62 67 79 86 89 90 90 92 94 95 98 100 102 107 113 118 121 124 128 132 135 137 140 144 147 153 162 173 180 183 185 192 203 212 221 232 240 242 243 250 255 255 255 255 255 255 255 255 255 255 255 255 255 255 255 255 255 255 239 216 190 166 143 128 127 127 127 127 127 127 127 127 127 127 127 127 127 127 127 127 127 127 127 127 127 127 127 127 127 127 127 127 127 127 127 127 127 127 127 127 127 127 127 127 127 127 127 127 127 127 127 127 127 127 127 127 127 127 127 127 127 127 127 127 127 127 127 127 127 127 127 127 127 127 127 127 127 127 127 127 127 127 127 127 127 127 127 127 127 127 127 127 127 127 127 127 127 127 130 155 189 204 206 205 203 201 200 200 201 203 205 203 200 194 185 173 166 163 161 157 154 151 149 146 144 143 142 142 141 140 142 144 151 161 167 165 161 157 151 147 145 140 132 129 128 126 123 117 116 116 118 117 118 119 118 117 116 117 119 121 122 121 117 113 109 104 100 98 97 96 95 94 92 90 86 82 77 75 74 72 70 67 67 66 65 63 62 61 60
0 0 0 0 3 9 12 13 17 21 22 21 8 10 10 15 23 27 29 31 32 34 36 38 39 40 42 43 45 49 53 57 59 61 62 63 64 69 79 87 88 88 90 92 93 95 98 100 103 108 112 117 121 124 128 133 135 137 140 142 146 152 160 169 175 179 188 196 201 208 216 227 241 249 255 255 255 255 255 255 255 255 255 255 255 255 255 255 255 255 255 255 255 255 215 196 173 149 130 127 127 127 127 127 127 127 127 127 127 127 127 127 127 127 127 127 127 127 127 127 127 127 127 127 127 127 127 127 127 127 127 127 127 127 127 127 127 127 127 127 127 127 127 127 127 127 127 127 127 127 127 127 127 127 127 127 127 127 127 127 127 127 127 127 127 127 127 127 127 127 127 127 127 127 127 127 127 127 127 127 127 127 127 127 127 127 127 127 127 127 127 127 127 127 130 154 193 204 208 207 206 205 203 204 207 208 207 206 202 195 188 177 168 165 162 158 157 156 156 154 151 148 147 146 146 147 150 157 168 170 168 165 161 157 154 151 148 142 138 137 139 138 134 127 121 119 120 120 121 123 123 122 121 121 124 129 132 129 122 115 108 102 100 99 97 96 95 94 93 91 88 84 79 74 71 69 67 65 65 64 64 63 62 61 60
0 0 2 6 10 12 13 15 19 21 23 24 25 24 23 21 21 23 28 32 33 34 36 37 39 40 42 45 50 55 58 60 61 63 64 66 68 73 79 83 84 85 88 93 95 96 98 100 103 108 112 114 117 120 125 132 139 142 142 145 149 157 164 169 174 177 181 188 192 200 208 214 224 235 247 255 255 255 255 255 255 255 255 255 255 255 255 255 255 255 255 255 255 243 203 177 156 136 127 127 127 127 127 127 127 127 127 127 127 127 127 127 127 127 127 127 127 127 127 127 127 127 127 127 127 127 127 127 127 127 127 127 127 127 127 127 127 127 127 127 127 127 127 127 127 127 127 127 127 127 127 127 127 127 127 127 127 127 127 127 127 127 127 127 127 127 127 127 127 127 127 127 127 127 127 127 127 127 127 127 127 127 127 127 127 127 127 127 127 127 127 127 127 127 131 155 179 200 213 211 211 210 210 211 212 211 209 206 199 191 182 172 168 166 162 163 167 168 166 162 157 157 160 159 160 165 167 172 174 172 171 169 168 165 161 157 153 150 149 148 152 155 152 143 133 126 124 123 125 126 127 126 124 124 129 136 138 130 119 110 105 102 101 99 97 96 96 95 94 93 90 86 78 73 71 69 66 63 62 62 62 63 62 60 61
0 3 5 10 11 12 14 16 19 21 23 24 25 25 25 27 28 28 24 25 30 32 34 36 38 40 42 46 51 55 57 58 61 64 67 69 71 75 79 81 82 83 84 92 98 98 97 99 104 108 110 113 117 121 124 131 141 147 149 150 152 156 166 175 178 178 181 186 190 198 203 209 217 224 234 246 254 255 255 255 255 255 255 255 255 255 255 255 255 255 255 255 238 217 189 163 143 128 127 127 127 127 127 127 127 127 127 127 127 127 127 127 127 127 127 127 127 127 127 127 127 127 127 127 127 127 127 127 127 127 127 127 127 127 127 127 127 127 127 127 127 127 127 127 127 127 127 127 127 127 127 127 127 127 127 127 127 127 127 127 127 127 127 127 127 127 127 127 127 127 127 127 127 127 127 127 127 127 127 127 127 127 127 127 127 127 127 127 127 127 127 127 127 128 142 167 187 213 223 220 218 217 217 215 214 211 207 201 193 184 175 172 170 167 166 169 170 169 165 163 164 167 178 185 187 186 181 179 180 183 188 191 191 184 175 171 169 167 166 164 164 167 165 160 152 142 131 127 128 129 129 129 128 127 130 132 129 125 118 110 106 103 101 99 98 98 97 97 96 95 93 89 82 74 70 67 64 61 60 60 60 61 60 59 60
4 8 10 10 10 12 14 17 19 20 22 23 24 25 25 27 28 30 31 30 29 29 32 36 37 40 43 47 50 52 53 55 57 60 65 69 73 75 78 79 81 80 81 86 93 96 96 98 102 106 111 116 121 126 129 135 141 146 150 154 156 159 165 172 176 179 184 188 194 200 203 207 212 219 225 235 244 252 255 255 255 255 255 255 255 255 255 255 255 255 255 240 217 196 175 153 133 127 127 127 127 127 127 127 127 127 127 127 127 127 127 127 127 127 127 127 127 127 127 127 127 127 127 127 127 127 127 127 127 127 127 127 127 127 127 127 127 127 127 127 127 127 127 127 127 127 127 127 127 127 127 127 127 127 127 127 127 127 127 127 127 127 127 127 127 127 127 127 127 127 127 127 127 127 127 127 127 127 127 127 127 127 127 127 127 127 127 127 127 127 127 127 127 137 161 183 213 229 229 226 223 220 216 213 211 207 202 193 186 179 175 173 171 169 170 171 170 167 165 166 168 174 186 196 202 199 192 192 200 205 207 209 209 200 190 184 178 173 170 167 165 165 165 163 160 151 135 130 130 131 131 132 131 130 131 131 129 126 121 116 109 104 102 101 101 101 102 101 99 97 94 90 86 77 71 66 62 60 58 58 58 59 58 57 57
4 7 10 11 12 13 15 17 19 20 22 23 24 25 26 27 29 30 32 33 34 34 34 33 37 40 45 48 50 50 51 52 54 57 62 65 69 72 75 77 78 79 83 86 90 93 96 100 104 108 114 120 125 127 129 134 140 145 150 157 164 165 168 173 177 180 184 189 192 197 202 206 212 218 222 231 240 248 253 255 255 255 255 255 255 255 255 255 255 255 247 225 203 183 163 146 129 127 127 127 127 127 127 127 127 127 127 127 127 127 127 127 127 127 127 127 127 127 127 127 127 127 127 127 127 127 127 127 127 127 127 127 127 127 127 127 127 127 127 127 127 127 127 127 127 127 127 127 127 127 127 127 127 127 127 127 127 127 127 127 127 127 127 127 127 127 127 127 127 127 127 127 127 127 127 127 127 127 127 127 127 127 127 127 127 127 127 127 127 127 127 127 132 153 182 204 229 232 229 226 221 217 212 208 205 202 195 185 181 179 177 175 174 173 173 171 169 169 169 170 175 184 198 205 209 209 207 214 220 220 215 213 212 202 188 178 174 171 169 168 166 165 164 162 155 141 133 132 131 132 133 134 133 132 132 132 131 129 127 123 117 112 108 106 105 105 104 103 100 97 94 88 83 77 72 68 64 59 56 55 55 54 55 56 56
7 9 9 10 12 14 16 17 19 20 22 23 25 26 27 29 31 32 33 34 36 36 37 37 37 41 45 46 47 48 49 50 52 55 57 59 62 67 73 78 82 85 89 93 96 100 104 108 110 115 119 124 128 130 132 138 144 148 151 155 160 162 166 171 177 181 184 187 189 191 197 204 210 216 225 232 237 244 250 255 255 255 255 255 255 255 255 255 255 255 242 216 192 171 152 135 127 127 127 127 127 127 127 127 127 127 127 127 127 127 127 127 127 127 127 127 127 127 127 127 127 127 127 127 127 127 127 127 127 127 127 127 127 127 127 127 127 127 127 127 127 127 127 127 127 127 127 127 127 127 127 127 127 127 127 127 127 127 127 127 127 127 127 127 127 127 127 127 127 127 127 127 127 127 127 127 127 127 127 127 127 127 127 127 127 127 127 127 127 127 127 142 157 172 194 228 232 229 224 221 216 213 210 204 198 195 190 187 184 181 179 178 177 176 174 172 171 174 178 183 188 199 209 211 212 216 220 223 222 221 218 215 213 202 190 182 177 174 172 170 169 167 165 159 146 138 135 133 132 132 133 134 135 134 134 132 131 129 127 123 119 116 113 110 108 107 105 103 99 94 89 84 80 78 77 75 68 64 59 54 52 52 52 53 54
11 11 12 12 13 14 16 17 19 20 22 23 25 27 29 31 33 35 36 37 37 38 39 39 39 40 42 43 45 46 47 49 50 51 54 56 59 62 69 77 83 87 91 95 99 102 106 108 111 116 121 125 130 133 134 138 142 144 147 151 155 161 167 174 178 181 183 185 189 194 199 205 212 218 224 230 235 243 252 255 255 255 255 255 255 255 255 255 255 255 232 205 182 160 140 128 127 127 127 127 127 127 127 127 127 127 127 127 127 127 127 127 127 127 127 127 127 127 127 127 127 127 127 127 127 127 127 127 127 127 127 127 127 127 127 127 127 127 127 127 127 127 127 127 127 127 127 127 127 127 127 127 127 127 127 127 127 127 127 127 127 127 127 127 127 127 127 127 127 127 127 127 127 127 127 127 127 127 127 127 127 127 127 127 127 127 127 127 127 127 135 157 181 204 212 230 232 227 224 226 229 227 224 222 221 223 220 196 186 183 181 180 180 178 176 176 181 189 195 198 203 212 214 213 214 218 222 221 221 221 220 217 213 201 192 187 185 184 181 181 180 178 172 164 157 150 145 138 134 134 135 136 136 135 134 134 132 128 126 123 120 118 116 113 111 109 106 102 97 92 89 85 83 83 83 80 76 70 66 59 53 50 49 49 49
11 11 12 13 14 15 16 17 18 19 21 24 26 28 29 31 33 34 36 36 37 38 40 41 42 41 42 44 46 46 48 50 51 52 55 57 59 62 65 72 80 87 92 97 100 104 107 110 113 117 119 121 126 131 135 139 141 143 147 152 157 161 166 170 171 174 176 179 184 189 194 200 206 213 218 223 230 238 244 246 252 255 255 255 255 255 255 255 255 248 224 199 174 152 133 127 127 127 127 127 127 127 127 127 127 127 127 127 127 127 127 127 127 127 127 127 127 127 127 127 127 127 127 127 127 127 127 127 127 127 127 127 127 127 127 127 127 127 127 127 127 127 127 127 127 127 127 127 127 127 127 127 127 127 127 127 127 127 127 127 127 127 127 127 127 127 127 127 127 127 127 127 127 127 127 127 127 127 127 127 127 127 127 127 127 127 127 127 132 151 170 183 200 221 236 237 234 232 234 241 248 249 246 244 240 237 226 202 189 185 183 182 181 181 182 187 195 203 207 211 215 218 219 218 218 218 219 219 221 221 225 220 214 207 198 202 202 201 200 201 198 196 192 185 177 169 158 145 137 139 139 137 136 136 135 134 133 131 128 124 120 118 117 115 112 110 107 104 100 96 93 90 88 88 88 86 82 74 66 60 53 50 48 48 47
10 11 12 14 15 15 16 17 18 19 21 24 26 28 29 31 32 33 35 36 37 39 40 41 42 42 43 44 45 46 47 49 50 52 55 60 64 67 70 72 77 84 93 99 102 106 110 112 115 117 119 121 125 129 133 138 141 144 147 152 157 159 162 164 166 169 174 177 181 184 188 192 200 208 212 216 219 227 233 240 250 255 255 255 255 255 255 255 255 245 214 188 167 146 130 127 127 127 127 127 127 127 127 127 127 128 128 128 127 127 127 127 127 127 127 127 127 127 127 127 127 127 127 127 127 127 127 127 127 127 127 127 127 127 127 127 127 127 127 127 127 127 127 127 127 127 127 127 127 127 127 127 127 127 127 127 127 127 127 127 127 127 127 127 127 127 127 127 127 127 127 127 127 127 127 127 127 127 127 127 127 127 127 127 127 127 127 127 131 156 182 203 221 239 244 241 243 247 253 255 255 255 255 255 252 245 231 201 190 187 185 184 186 189 195 200 206 214 221 227 228 230 233 234 233 231 229 227 225 222 224 223 218 212 211 214 212 209 206 202 199 197 198 195 184 170 160 149 142 140 138 138 138 137 136 134 131 129 127 124 122 119 116 113 111 109 107 105 102 99 97 94 91 88 86 82 77 70 63 57 54 53 51 49 47
10 11 12 13 14 15 15 16 17 18 20 22 23 25 28 29 30 32 35 36 37 38 40 41 42 43 44 45 46 47 48 49 49 50 55 62 68 72 74 77 80 83 88 94 101 105 106 107 109 114 117 120 122 123 129 134 137 139 142 148 155 159 162 164 166 170 174 178 184 190 194 198 204 208 212 216 221 228 240 255 255 255 255 255 255 255 255 255 241 222 200 177 154 135 127 127 127 127 127 127 127 127 127 128 130 132 132 133 129 127 127 127 127 127 127 127 127 127 127 127 127 127 127 127 127 127 127 127 127 127 127 127 127 127 127 127 127 127 127 127 127 127 127 127 127 127 127 127 127 127 127 127 127 127 127 127 127 127 127 127 127 127 127 127 127 127 127 127 127 127 127 127 127 127 127 127 127 127 127 127 127 127 127 127 127 127 127 127 129 147 174 199 220 242 255 255 255 255 255 255 255 255 255 255 248 236 223 201 192 190 189 190 194 202 207 211 220 230 236 240 239 242 245 245 244 244 242 240 236 233 228 223 221 221 223 221 219 217 212 207 202 198 193 187 175 159 150 144 141 140 139 139 138 137 136 135 134 132 130 127 125 122 116 109 108 103 103 102 101 99 97 95 92 88 83 77 71 66 62 60 58 56 54 52 50
8 10 11 11 12 12 13 14 15 16 17 19 21 22 24 26 29 32 35 37 37 37 38 40 41 43 45 46 48 50 52 54 54 56 61 66 69 72 75 79 82 85 87 90 94 96 99 101 103 106 109 112 115 120 127 131 134 137 141 148 153 157 161 164 167 172 175 178 183 190 196 206 213 222 232 240 246 253 255 255 255 255 255 255 255 255 255 255 230 206 185 164 143 128 127 127 127 128 128 127 127 127 127 131 137 137 136 137 136 132 127 127 127 127 127 127 127 127 127 127 127 127 127 127 127 127 127 127 127 127 127 127 127 127 127 127 127 127 127 127 127 127 127 127 127 127 127 127 127 127 127 127 127 127 127 127 127 127 127 127 127 127 127 127 127 127 127 127 127 127 127 127 127 127 127 127 127 127 127 127 127 127 127 127 127 127 127 127 128 145 169 195 222 252 255 255 255 255 255 255 255 255 255 249 236 220 208 199 198 196 197 201 207 211 216 226 236 245 248 246 245 245 246 245 244 244 242 240 238 235 233 231 230 230 228 225 223 220 216 212 204 199 189 174 160 150 145 143 142 141 140 139 139 138 137 136 135 133 131 129 126 122 114 105 100 98 96 96 96 96 95 93 91 87 83 79 73 68 65 63 62 60 57 53 50
4 4 5 7 8 8 9 10 10 10 12 14 17 20 21 24 27 30 32 33 34 35 36 38 40 42 45 47 50 54 56 59 60 62 65 69 73 75 76 78 80 82 85 88 91 95 99 103 104 105 107 109 111 114 121 127 133 135 140 150 155 159 162 165 169 175 182 189 196 204 214 222 229 238 245 251 255 255 255 255 255 255 255 255 255 255 255 255 226 200 179 157 136 127 127 127 127 127 129 129 129 129 131 134 140 143 145 147 147 143 134 130 127 127 127 127 127 127 127 127 127 127 127 127 127 127 127 127 127 127 127 127 127 127 127 127 127 127 127 127 127 127 127 127 127 127 127 127 127 127 127 127 127 127 127 127 127 127 127 127 127 127 127 127 127 127 127 127 127 127 127 127 127 127 127 127 127 127 127 127 127 127 127 127 127 127 127 127 132 152 178 207 238 255 255 255 255 255 255 255 255 255 253 238 225 215 208 205 205 205 210 219 223 223 228 240 245 249 248 248 247 247 246 245 244 244 243 241 241 240 239 237 235 233 230 225 217 211 207 203 198 191 180 166 155 147 145 143 143 141 141 140 139 137 136 134 133 132 130 129 129 121 111 102 96 90 89 90 91 92 92 89 87 85 83 81 77 73 69 68 66 63 59 54 50
0 0 0 1 5 6 7 8 10 11 11 12 14 17 19 22 25 25 27 30 32 33 35 37 38 41 43 45 48 51 53 56 58 60 63 66 70 76 80 81 81 82 85 88 91 95 100 103 104 105 105 107 109 113 118 122 127 131 137 146 154 160 162 165 173 187 193 200 205 210 217 225 232 241 248 254 255 255 255 255 255 255 255 255 255 255 255 252 221 196 173 150 131 127 127 127 127 127 128 130 131 133 135 136 139 149 163 171 172 166 155 143 133 128 127 127 127 127 127 127 127 127 127 127 127 127 127 127 127 127 127 127 127 127 127 127 127 127 127 127 127 127 127 127 127 127 127 127 127 127 127 127 127 127 127 127 127 127 127 127 127 127 127 127 127 127 127 127 127 127 127 127 127 127 127 127 127 127 127 127 127 127 127 127 127 127 127 127 127 143 169 196 232 255 255 255 255 255 255 255 255 255 246 232 225 219 215 212 212 215 230 241 245 244 246 249 248 249 249 249 248 247 246 245 244 244 244 243 243 242 240 238 236 234 232 226 217 210 201 191 185 178 170 161 152 147 145 144 143 143 142 140 137 136 136 134 133 132 131 129 124 115 102 94 91 90 88 85 84 84 81 79 79 78 79 79 78 75 72 69 66 64 59 55 52
0 0 0 0 0 3 2 1 2 5 9 11 12 16 14 16 18 14 17 25 28 30 30 33 35 37 38 40 41 43 46 48 50 54 56 58 61 66 75 81 83 84 86 89 92 96 99 102 103 103 104 105 107 112 115 119 124 129 134 142 152 157 160 166 176 188 198 203 208 214 221 227 234 240 243 248 250 249 248 248 252 255 255 255 255 255 255 255 227 198 166 144 128 127 127 127 127 127 128 130 131 132 134 135 144 163 184 199 201 191 175 156 140 129 127 127 127 127 127 127 127 127 127 127 127 127 127 127 127 127 127 127 127 127 127 127 127 127 127 127 127 127 127 127 127 127 127 127 127 127 127 127 127 127 127 127 127 127 127 127 127 127 127 127 127 127 127 127 127 127 127 127 127 127 127 127 127 127 127 127 127 127 127 127 127 127 127 127 127 139 167 190 220 255 255 255 255 255 255 255 255 255 244 237 229 225 221 220 222 233 248 255 255 255 255 253 252 251 250 249 248 247 246 245 245 244 242 243 243 242 240 238 237 234 230 223 216 207 195 184 176 168 161 156 150 148 146 145 145 145 145 143 141 139 138 137 135 131 125 117 109 101 94 91 89 88 86 85 81 81 83 81 77 74 71 69 68 72 73 70 66 62 59 57 55
3 3 0 0 0 0 0 0 1 0 0 0 1 4 4 5 4 5 6 9 11 13 14 19 23 29 36 40 43 45 47 49 50 51 54 58 60 61 66 78 83 85 87 89 91 95 97 99 101 101 102 103 105 110 114 117 121 126 131 136 145 153 158 169 183 190 197 203 209 215 221 227 231 233 232 228 223 220 219 222 225 236 244 247 250 253 255 249 217 190 164 142 128 127 127 127 127 127 127 127 127 128 128 135 148 169 190 206 204 199 180 157 136 127 127 127 127 127 127 127 127 127 127 127 127 127 127 127 127 127 127 127 127 127 127 127 127 127 127 127 127 127 127 127 127 127 127 127 127 127 127 127 127 127 127 127 127 127 127 127 127 127 127 127 127 127 127 127 127 127 127 127 127 127 127 127 127 127 127 127 127 127 127 127 127 127 127 127 127 134 160 184 212 255 255 255 255 255 255 255 255 255 255 252 237 231 229 229 231 247 255 255 255 255 255 254 253 252 251 250 249 247 245 242 238 234 231 229 229 231 229 226 221 217 212 207 201 194 186 179 172 168 164 160 153 148 147 146 146 146 148 148 147 144 142 138 130 125 121 117 113 107 99 94 91 89 88 86 85 86 86 85 83 80 78 75 69 62 67 66 62 58 55 56 55
6 8 9 9 9 5 3 11 13 15 14 6 2 10 16 20 19 19 17 15 16 18 22 23 23 36 41 42 44 45 48 50 52 54 56 59 62 63 64 73 84 86 89 90 91 93 94 96 98 100 101 102 105 111 116 117 121 127 130 133 136 143 151 163 181 190 194 199 205 211 217 220 221 220 211 204 200 201 205 209 214 224 233 240 242 245 250 242 212 184 159 137 127 127 127 127 127 127 127 127 127 127 128 133 143 160 178 190 192 184 168 150 133 127 127 127 127 127 127 127 127 127 127 127 127 127 127 127 127 127 127 127 127 127 127 127 127 127 127 127 127 127 127 127 127 127 127 127 127 127 127 127 127 127 127 127 127 127 127 127 127 127 127 127 127 127 127 127 127 127 127 127 127 127 127 127 127 127 127 127 127 127 127 127 127 127 127 127 127 133 159 181 206 255 255 255 255 255 255 255 255 255 255 255 252 239 237 237 242 255 255 255 255 255 255 255 253 252 251 250 248 246 243 238 234 227 220 214 213 214 214 213 209 204 200 195 190 184 180 176 172 168 163 158 154 149 149 148 147 149 152 153 151 145 138 133 132 133 136 134 128 122 112 103 96 91 89 87 88 87 86 84 83 81 79 78 73 60 57 53 47 44 43 45 43
9 10 12 14 13 13 7 12 16 19 20 20 15 7 18 24 25 26 26 23 24 30 33 35 31 33 40 45 46 46 47 49 50 54 59 64 65 66 66 71 81 85 86 87 89 90 92 95 99 102 104 104 104 108 113 119 125 130 131 132 134 138 144 155 168 181 188 193 197 200 202 201 197 195 194 195 196 199 206 212 216 221 228 233 236 238 242 237 215 185 159 133 127 127 127 127 127 127 127 127 127 127 127 131 140 149 157 163 164 159 149 137 130 127 127 127 127 127 127 127 127 127 127 127 127 127 127 127 127 127 127 127 127 127 127 127 127 127 127 127 127 127 127 127 127 127 127 127 127 127 127 127 127 127 127 127 127 127 127 127 127 127 127 127 127 127 127 127 127 127 127 127 127 127 127 127 127 127 127 127 127 127 127 127 127 127 127 127 127 133 162 183 206 255 255 255 255 255 255 255 255 255 255 255 255 248 245 247 255 255 255 255 255 255 255 255 255 253 252 251 248 244 238 232 228 222 216 213 210 208 206 205 202 200 195 190 185 182 179 176 173 170 165 159 156 154 152 152 155 158 159 153 146 142 140 139 138 138 139 138 136 131 121 109 100 94 90 91 90 88 87 85 83 81 78 77 74 67 60 57 54 50 44 39 37
11 13 19 23 21 18 15 14 20 25 27 27 22 19 22 28 30 31 31 31 32 37 40 41 41 42 42 44 46 50 50 51 52 56 63 68 69 69 70 71 75 79 80 82 85 89 92 94 98 103 106 106 106 107 111 115 123 130 131 133 135 136 142 152 157 165 172 174 175 178 180 182 188 190 191 192 194 199 205 210 213 218 223 228 232 235 238 234 208 178 153 131 127 127 127 127 127 127 127 127 127 127 130 134 136 136 139 140 139 137 130 128 127 127 127 127 127 127 127 127 127 127 127 127 127 127 127 127 127 127 127 127 127 127 127 127 127 127 127 127 127 127 127 127 127 127 127 127 127 127 127 127 127 127 127 127 127 127 127 127 127 127 127 127 127 127 127 127 127 127 127 127 127 127 127 127 127 127 127 127 127 127 127 127 127 127 127 127 127 138 168 189 217 255 255 255 255 255 255 255 255 255 255 255 255 255 255 255 255 255 255 255 255 255 255 255 255 255 255 254 251 245 238 231 225 222 218 213 210 208 206 204 203 200 197 194 191 191 188 183 176 174 170 167 164 162 163 164 164 161 156 151 149 148 147 147 146 144 142 139 138 133 122 112 103 96 97 98 96 95 93 91 88 86 81 78 76 72 69 68 66 62 56 50 46
12 14 17 24 25 23 19 18 23 32 35 33 27 25 29 32 34 35 35 37 38 40 42 43 45 46 47 47 48 49 50 52 54 58 65 70 72 73 74 75 76 77 79 81 84 88 92 97 102 105 107 109 110 110 111 114 121 128 131 133 135 136 142 152 155 159 162 162 165 171 177 180 184 188 190 192 193 197 202 207 212 217 219 225 228 229 233 235 215 186 156 132 127 127 127 127 127 127 127 127 127 127 132 130 128 128 130 130 128 127 127 127 127 127 127 127 127 127 127 127 127 127 127 127 127 127 127 127 127 127 127 127 127 127 127 127 127 127 127 127 127 127 127 127 127 127 127 127 127 127 127 127 127 127 127 127 127 127 127 127 127 127 127 127 127 127 127 127 127 127 127 127 127 127 127 127 127 127 127 127 127 127 127 127 127 127 127 127 128 148 175 197 222 255 255 255 255 255 255 255 255 255 255 255 255 255 255 255 255 255 255 255 255 255 255 255 255 255 255 255 255 248 242 235 234 232 225 218 213 210 207 205 203 201 199 197 197 197 196 193 188 182 177 175 174 174 174 172 167 161 158 157 155 156 158 159 159 156 150 144 143 138 129 119 110 103 105 106 106 103 100 96 93 89 86 82 81 79 79 78 77 73 69 64 57
19 17 17 20 26 27 23 20 22 30 37 36 32 30 33 35 39 41 42 42 41 42 44 45 46 48 49 50 51 52 53 53 55 58 63 68 72 76 77 77 77 78 80 82 84 87 96 103 108 109 110 111 112 113 113 114 118 125 129 131 133 134 140 151 157 156 156 160 167 172 177 182 186 189 191 193 195 198 201 204 207 209 213 218 219 221 227 230 210 183 156 133 127 127 127 127 127 127 127 127 127 127 127 127 127 127 127 127 127 127 127 127 127 127 127 127 127 127 127 127 127 127 127 127 127 127 127 127 127 127 127 127 127 127 127 127 127 127 127 127 127 127 127 127 127 127 127 127 127 127 127 127 127 127 127 127 127 127 127 127 127 127 127 127 127 127 127 127 127 127 127 127 127 127 127 127 127 127 127 127 127 127 127 127 127 127 127 127 130 154 180 204 228 255 255 255 255 255 255 255 255 255 255 255 255 255 255 255 255 255 255 255 255 255 255 255 255 255 255 255 255 250 246 244 244 237 229 224 218 214 212 210 208 207 206 205 202 200 197 194 192 188 186 187 188 185 183 179 175 171 169 167 166 166 166 165 163 158 151 147 145 144 136 127 120 112 114 114 114 112 107 102 98 95 93 92 92 91 90 90 86 80 73 67 60
27 24 21 20 24 31 29 27 27 26 30 33 33 33 36 39 44 48 51 51 50 48 49 48 48 49 51 53 55 55 56 56 57 59 60 63 67 72 74 75 76 79 81 83 85 94 102 106 109 110 111 112 113 114 116 118 120 123 126 128 130 132 135 141 147 151 156 162 164 169 174 178 185 189 191 193 196 198 199 202 204 206 210 214 216 222 235 241 215 183 158 135 127 127 127 127 127 127 127 127 127 127 127 127 127 127 127 127 127 127 127 127 127 127 127 127 127 127 127 127 127 127 127 127 127 127 127 127 127 127 127 127 127 127 127 127 127 127 127 127 127 127 127 127 127 127 127 127 127 127 127 127 127 127 127 127 127 127 127 127 127 127 127 127 127 127 127 127 127 127 127 127 127 127 127 127 127 127 127 127 127 127 127 127 127 127 127 127 135 173 200 221 242 255 255 255 255 255 255 255 255 255 255 255 255 255 255 255 255 255 255 255 255 255 255 255 255 255 255 255 255 255 255 255 252 243 239 236 232 228 225 223 222 220 218 213 208 204 199 197 196 197 201 200 198 196 193 190 187 185 184 181 176 171 168 165 160 154 149 146 143 140 137 132 125 121 122 121 119 118 115 110 106 104 103 104 105 104 102 99 93 85 77 68 60
35 31 25 22 24 29 32 32 33 36 32 32 33 34 35 39 44 50 55 57 57 56 55 52 51 52 54 58 61 61 59 59 59 60 62 63 64 70 75 77 78 80 83 87 97 104 107 108 110 111 112 113 114 116 118 124 127 128 129 130 132 136 138 139 141 145 150 154 156 160 163 168 181 187 188 191 193 195 198 201 204 209 213 216 221 231 242 246 230 196 163 139 127 127 127 127 127 127 127 127 127 127 127 127 127 127 127 127 127 127 127 127 127 127 127 127 127 127 127 127 127 127 127 127 127 127 127 127 127 127 127 127 127 127 127 127 127 127 127 127 127 127 127 127 127 127 127 127 127 127 127 127 127 127 127 127 127 127 127 127 127 127 127 127 127 127 127 127 127 127 127 127 127 127 127 127 127 127 127 127 127 127 127 127 127 127 127 129 150 186 210 233 255 255 255 255 255 255 255 255 255 255 255 255 255 255 255 255 255 255 255 255 255 255 255 255 255 255 255 255 255 255 255 255 255 255 254 254 252 247 243 240 237 231 226 220 215 210 206 203 205 209 209 208 207 204 201 198 195 194 192 187 180 173 167 160 155 150 146 144 141 138 134 131 128 127 126 125 123 120 117 113 110 109 109 109 108 108 108 104 97 88 79 69 62
44 38 31 23 25 28 30 34 41 46 42 37 36 36 34 39 45 51 55 59 59 59 58 56 54 54 55 58 62 64 63 62 61 62 63 66 69 73 78 81 82 83 86 95 100 104 107 109 110 111 113 114 116 118 121 124 128 128 128 129 131 134 134 135 137 140 148 155 160 161 162 165 176 180 181 184 188 193 199 203 205 209 214 218 224 236 241 246 236 201 170 148 129 127 127 127 127 127 127 127 127 127 127 127 127 127 127 127 127 127 127 127 127 127 127 127 127 127 127 127 127 127 127 127 127 127 127 127 127 127 127 127 127 127 127 127 127 127 127 127 127 127 127 127 127 127 127 127 127 127 127 127 127 127 127 127 127 127 127 127 127 127 127 127 127 127 127 127 127 127 127 127 127 127 127 127 127 127 127 127 127 127 127 127 127 128 142 171 180 197 223 245 255 255 255 255 255 255 255 255 255 255 255 255 255 255 255 255 255 255 255 255 255 255 255 255 255 255 255 255 255 255 255 255 255 255 255 255 255 255 255 255 255 248 240 233 228 221 215 212 213 215 215 214 212 210 206 201 197 194 192 187 181 172 164 156 151 148 146 145 144 140 136 134 135 134 131 130 129 124 119 115 113 112 111 110 108 107 105 102 96 87 77 69 68
47 45 41 33 36 43 46 49 50 49 47 44 41 40 37 37 42 45 47 51 55 57 59 59 58 57 58 58 60 65 68 66 64 65 65 66 70 74 78 82 84 87 90 93 95 99 104 107 108 111 113 115 118 121 122 122 123 124 125 126 128 130 132 134 138 140 145 150 151 152 156 168 173 170 174 182 187 199 211 211 210 212 216 221 228 233 236 240 236 211 184 158 133 127 127 127 127 127 127 127 127 127 127 127 127 127 127 127 127 127 127 127 127 127 127 127 127 127 127 127 127 127 127 127 127 127 127 127 127 127 127 127 127 127 127 127 127 127 127 127 127 127 127 127 127 127 127 127 127 127 127 127 127 127 127 127 127 127 127 127 127 127 127 127 127 127 127 127 127 127 127 127 127 127 127 127 127 127 127 127 127 127 127 128 136 157 183 210 227 234 247 255 255 255 255 255 255 255 255 255 255 255 255 255 255 255 255 255 255 255 255 255 255 255 255 255 255 255 255 255 255 255 255 255 255 255 255 255 255 255 255 255 255 255 255 247 240 233 225 221 220 220 221 220 216 211 206 201 195 191 187 183 178 172 164 156 151 149 148 147 146 142 140 139 139 138 136 135 134 132 127 123 122 119 117 115 112 109 105 99 91 84 78 76 76
47 48 49 47 45 48 49 50 51 50 49 48 47 47 45 43 40 41 43 46 49 53 56 58 59 60 60 61 62 64 68 68 68 68 68 69 70 71 73 80 84 87 90 91 93 95 99 101 105 109 112 113 114 117 117 118 121 123 125 127 128 131 134 136 138 139 141 142 144 146 147 156 159 156 159 176 182 191 202 213 218 221 219 220 227 227 225 228 233 225 197 169 142 127 127 127 127 127 127 127 127 127 127 127 127 127 127 127 127 127 127 127 127 127 127 127 127 127 127 127 127 127 127 127 127 127 127 127 127 127 127 127 127 127 127 127 127 127 127 127 127 127 127 127 127 127 127 127 127 127 127 127 127 127 127 127 127 127 127 127 127 127 127 127 127 127 127 127 127 127 127 127 127 127 127 127 127 127 127 127 127 129 137 160 177 192 221 241 255 255 255 255 255 255 255 255 255 255 255 255 255 255 255 255 255 255 255 255 255 255 255 255 255 255 255 255 255 255 255 255 255 255 255 255 255 255 255 255 255 255 255 255 255 255 255 255 250 241 233 228 227 228 227 222 216 210 204 198 191 186 183 180 176 172 164 157 154 152 149 148 146 144 143 142 141 140 139 136 133 131 130 129 128 126 124 121 117 112 106 99 91 86 86 87 86
47 48 49 51 51 52 52 52 53 52 51 51 51 51 51 49 48 47 46 49 51 53 55 57 59 61 62 63 63 65 67 69 70 71 72 73 76 77 77 77 84 87 89 91 92 94 95 96 99 103 105 105 105 108 116 119 122 124 126 128 130 134 135 138 139 139 141 143 144 146 148 150 152 154 156 163 171 178 184 194 198 199 201 214 216 214 218 222 227 226 205 184 156 132 127 127 127 127 127 127 127 127 127 127 127 127 127 127 127 127 127 127 127 127 127 127 127 127 127 127 127 127 127 127 127 127 127 127 127 127 127 127 127 127 127 127 127 127 127 127 127 127 127 127 127 127 127 127 127 127 127 127 127 127 127 127 127 127 127 127 127 127 127 127 127 127 127 127 127 127 127 127 127 127 127 127 127 127 127 127 140 171 184 205 220 240 241 255 255 255 255 255 255 255 255 255 255 255 255 255 255 255 255 255 255 255 255 255 255 255 255 255 255 255 255 255 255 255 255 255 255 255 255 255 255 255 255 255 255 255 255 255 255 255 255 255 255 248 240 235 234 233 230 224 217 210 203 194 188 184 181 178 175 171 164 159 157 154 151 149 148 146 144 144 143 141 139 138 134 131 130 129 128 127 125 121 116 111 106 102 99 96 94 93 88
39 42 46 48 49 52 55 55 54 53 53 53 54 55 55 54 53 53 52 51 51 53 55 56 58 61 63 64 65 66 67 69 70 72 73 75 77 79 81 80 81 85 89 91 93 95 97 98 99 99 100 101 103 106 112 121 125 126 126 128 130 132 134 136 138 139 140 142 144 147 148 151 153 155 158 160 163 166 172 181 186 189 193 199 204 212 217 220 224 228 220 200 173 145 128 127 127 127 127 127 127 127 127 127 127 127 127 127 127 127 127 127 127 127 127 127 127 127 127 127 127 127 127 127 127 127 127 127 127 127 127 127 127 127 127 127 127 127 127 127 127 127 127 127 127 127 127 127 127 127 127 127 127 127 127 127 127 127 127 127 127 127 127 127 127 127 127 127 127 127 127 127 127 127 127 127 127 127 127 127 139 179 199 239 253 255 255 255 255 255 255 255 254 253 255 255 255 255 255 255 255 255 255 255 255 255 255 255 255 255 255 255 255 255 255 255 255 255 255 255 255 255 255 255 255 255 255 255 255 255 255 255 255 255 255 255 255 253 247 242 240 237 232 226 219 213 205 198 192 187 183 179 176 172 166 161 159 156 154 151 149 147 146 146 145 142 141 139 135 132 131 129 128 126 123 119 116 113 111 106 99 95 92 90 86
30 32 36 39 40 40 41 43 47 50 51 51 52 52 52 52 53 54 55 55 55 54 54 55 57 59 63 64 66 68 68 69 71 72 73 75 77 80 81 84 86 87 88 90 93 95 96 98 99 99 100 102 103 106 109 115 121 123 123 126 130 134 137 138 138 139 142 144 146 149 149 149 151 153 158 161 163 166 171 175 178 183 186 192 205 211 213 220 225 229 232 220 196 168 143 128 127 127 127 127 127 127 127 127 127 127 127 127 127 127 127 127 127 127 127 127 127 127 127 127 127 127 127 127 127 127 127 127 127 127 127 127 127 127 127 127 127 127 127 127 127 127 127 127 127 127 127 127 127 127 127 127 127 127 127 127 127 127 127 127 127 127 127 127 127 127 127 127 127 127 127 127 127 127 127 127 127 127 127 127 131 161 178 206 245 255 255 255 255 255 255 254 250 248 250 251 251 253 255 255 255 255 255 255 255 255 255 255 255 255 255 255 255 255 255 255 255 255 255 255 255 255 255 255 255 255 255 255 255 255 255 255 255 255 255 255 255 255 252 248 245 241 235 229 223 218 209 202 196 190 184 179 175 170 165 161 159 157 154 151 149 148 148 148 147 146 144 140 135 133 132 131 128 125 121 119 117 116 113 107 97 90 86 84 81
33 36 37 37 35 31 30 32 34 36 39 40 42 43 46 50 53 57 58 58 58 59 58 57 57 58 61 64 66 68 69 70 71 73 75 76 79 81 82 84 85 87 88 89 90 92 95 97 99 99 100 102 103 104 105 108 112 119 123 125 131 137 136 133 133 132 134 137 139 140 142 145 149 153 157 162 166 169 172 173 177 182 188 193 201 204 211 221 225 228 232 230 204 181 162 143 128 127 127 127 127 127 127 127 127 127 127 127 127 127 127 127 127 127 127 127 127 127 127 127 127 127 127 127 127 127 127 127 127 127 127 127 127 127 127 127 127 127 127 127 127 127 127 127 127 127 127 127 127 127 127 127 127 127 127 127 127 127 127 127 127 127 127 127 127 127 127 127 127 127 127 127 127 127 127 127 127 127 127 127 127 130 157 210 255 255 255 255 255 255 254 252 248 245 246 247 247 250 252 254 254 253 252 254 255 255 255 255 255 255 255 255 255 255 255 255 255 255 255 255 255 255 255 255 255 255 255 255 255 255 255 255 255 255 255 255 255 255 255 255 250 243 236 230 225 219 213 207 201 196 186 178 172 167 164 161 160 158 154 150 149 148 148 148 147 147 145 142 138 135 134 132 130 126 123 121 119 116 111 103 93 85 80 76 73
32 32 32 32 28 25 28 31 33 35 35 37 40 46 51 52 54 59 63 61 61 61 62 62 62 59 59 61 65 68 69 71 72 74 76 78 80 81 83 85 86 87 88 90 91 94 97 98 99 99 100 101 101 102 103 103 105 112 119 125 129 127 123 118 119 122 127 131 132 133 136 144 152 157 161 164 168 170 172 175 181 191 198 197 198 200 204 212 218 222 231 236 224 207 187 161 141 127 127 127 127 127 127 127 127 127 127 127 127 127 127 127 127 127 127 127 127 127 127 127 127 127 127 127 127 127 127 127 127 127 127 127 127 127 127 127 127 127 127 127 127 127 127 127 127 127 127 127 127 127 127 127 127 127 127 127 127 127 127 127 127 127 127 127 127 127 127 127 127 127 127 127 127 127 127 127 127 127 127 127 127 131 167 228 255 255 255 255 254 253 251 249 246 244 242 242 244 246 249 253 252 249 248 250 252 254 255 255 255 255 255 255 255 255 255 255 255 255 255 255 255 255 255 255 255 255 255 255 255 255 255 255 255 255 255 255 255 255 255 255 251 243 235 228 222 216 211 205 200 194 187 178 171 167 164 162 160 158 153 149 148 147 147 147 146 146 145 143 140 138 135 134 132 129 125 123 119 112 104 95 88 82 78 73 70
24 23 23 22 21 27 33 38 41 42 39 38 40 46 51 54 56 58 61 63 63 63 64 65 65 63 62 61 63 67 69 71 72 75 77 78 80 82 83 84 86 87 88 90 92 94 97 99 99 99 99 99 100 100 101 101 102 103 105 110 112 111 110 109 111 116 121 123 124 127 134 144 153 159 164 166 169 173 175 180 184 187 191 193 195 197 200 205 210 216 224 230 233 227 206 183 157 135 127 127 127 127 127 127 127 127 127 127 127 127 127 127 127 127 127 127 127 127 127 127 127 127 127 127 127 127 127 127 127 127 127 127 127 127 127 127 127 127 127 127 127 127 127 127 127 127 127 127 127 127 127 127 127 127 127 127 127 127 127 127 127 127 127 127 127 127 127 127 127 127 127 127 127 127 127 127 127 127 127 127 127 139 177 222 240 255 255 255 253 250 247 246 245 243 241 240 239 241 245 250 249 245 246 248 251 253 254 254 255 255 255 255 255 255 255 255 255 255 255 255 255 255 255 255 255 255 255 255 255 255 255 255 255 255 255 255 255 255 255 255 253 246 238 230 224 218 210 202 195 189 183 177 173 169 166 163 159 155 151 148 147 146 145 145 145 144 143 142 141 139 138 137 135 131 126 121 115 108 100 94 88 83 78 73 69
11 12 14 16 20 27 35 44 49 50 47 44 43 46 50 54 58 59 60 62 63 64 65 67 67 67 66 65 63 64 67 69 70 72 74 76 78 80 81 83 85 86 88 90 92 95 97 98 98 98 98 98 99 99 100 100 101 101 102 103 104 105 106 108 113 117 120 124 126 130 139 149 155 160 164 168 170 174 177 180 183 185 189 193 195 198 201 205 208 211 214 220 226 228 217 195 177 158 145 132 127 127 127 127 127 127 127 127 127 127 127 127 127 127 127 127 127 127 127 127 127 127 127 127 127 127 127 127 127 127 127 127 127 127 127 127 127 127 127 127 127 127 127 127 127 127 127 127 127 127 127 127 127 127 127 127 127 127 127 127 127 127 127 127 127 127 127 127 127 127 127 127 127 127 127 127 127 127 127 127 133 154 174 194 229 255 255 255 252 249 245 242 242 240 238 237 236 237 242 247 246 243 244 247 250 251 252 252 253 255 255 255 255 255 255 255 255 255 255 255 255 255 255 255 255 255 255 255 255 255 255 255 255 255 255 255 255 255 255 255 255 253 246 237 229 221 212 201 192 183 178 174 170 168 165 162 159 154 150 147 146 144 143 143 143 142 142 142 142 141 140 138 136 131 124 117 110 103 97 90 82 77 71 67 65
16 19 22 24 25 28 32 37 42 44 46 50 53 52 50 52 56 58 59 60 62 63 64 66 67 68 68 67 67 67 67 67 68 71 73 74 76 78 79 81 83 84 86 88 90 93 93 94 95 95 96 97 97 98 99 99 100 100 101 102 103 104 105 107 112 119 121 121 123 130 138 145 150 157 162 167 170 172 174 178 182 185 189 193 195 199 201 205 208 212 214 218 223 224 225 226 211 189 170 149 137 129 127 127 127 127 127 127 127 127 127 127 127 127 127 127 127 127 127 127 127 127 127 127 127 127 127 127 127 127 127 127 127 127 127 127 127 127 127 127 127 127 127 127 127 127 127 127 127 127 127 127 127 127 127 127 127 127 127 127 127 127 127 127 127 127 127 127 127 127 127 127 127 127 127 127 127 127 127 133 151 172 191 209 229 253 255 255 253 249 244 240 237 235 234 233 232 234 237 240 240 241 244 248 249 250 250 250 250 253 255 255 255 255 255 255 255 255 255 255 255 255 255 255 255 255 255 255 255 255 255 255 255 255 255 255 255 255 255 255 253 250 245 237 229 221 212 200 188 178 172 167 165 162 159 159 158 156 152 147 144 143 142 142 142 142 143 143 143 141 138 134 130 124 116 108 102 95 89 82 76 70 65 61 57
30 32 33 34 36 41 43 45 50 53 57 60 61 60 58 58 57 58 59 60 61 62 63 65 66 67 68 68 69 69 69 69 69 70 72 73 76 77 79 80 81 82 83 84 86 88 89 91 93 94 95 96 96 97 98 98 99 100 100 101 102 103 104 106 108 111 115 121 127 135 143 148 154 159 164 166 168 171 174 177 181 185 190 193 196 200 203 207 212 216 218 217 217 218 223 231 232 213 194 180 164 159 156 142 128 127 127 127 127 127 127 127 127 127 127 127 127 127 127 127 127 127 127 127 127 127 127 127 127 127 127 127 127 127 127 127 127 127 127 127 127 127 127 127 127 127 127 127 127 127 127 127 127 127 127 127 127 127 127 127 127 127 127 127 127 127 127 127 127 127 127 127 127 127 127 127 127 130 139 152 172 187 203 226 250 255 255 255 254 251 246 240 236 232 230 229 229 231 232 236 240 243 245 247 248 249 249 247 246 248 254 255 255 255 255 255 255 255 255 255 255 255 255 255 255 255 255 255 255 255 255 255 255 255 255 255 255 253 249 245 243 240 236 230 223 216 207 197 183 173 166 161 159 157 155 156 156 154 152 149 145 142 141 141 141 142 143 144 143 140 136 129 122 116 109 102 97 93 89 83 76 69 64 60 56
46 47 48 49 47 54 59 60 63 67 71 74 73 69 67 65 63 62 62 63 63 63 64 65 66 67 68 69 70 70 71 71 71 73 75 76 78 80 81 83 84 84 84 84 85 86 89 91 92 94 94 94 95 95 97 98 99 99 100 101 102 103 104 105 105 107 115 126 134 144 157 161 166 169 172 174 177 181 184 188 189 190 192 194 196 199 202 205 211 215 213 211 213 217 224 232 232 233 229 217 197 200 183 164 143 131 127 127 127 127 127 127 127 127 127 127 127 127 127 127 127 127 127 127 127 127 127 127 127 127 127 127 127 127 127 127 127 127 127 127 127 127 127 127 127 127 127 127 127 127 127 127 127 127 127 127 127 127 127 127 127 127 127 127 127 127 127 127 127 127 127 127 127 127 127 133 139 161 175 186 192 208 225 244 255 255 255 255 254 251 247 242 235 231 227 226 227 227 230 235 239 242 244 245 245 246 245 243 241 241 246 253 255 255 255 255 255 255 255 255 255 255 255 255 255 255 255 255 255 255 255 255 255 255 251 244 239 235 233 231 230 228 225 220 213 207 200 192 181 170 161 157 154 152 150 151 151 151 151 149 147 142 140 141 142 143 144 145 142 137 131 124 117 111 106 104 103 99 94 88 81 74 68 64 60
55 59 61 61 60 59 62 65 68 71 75 79 81 81 79 75 74 72 70 68 67 66 66 66 66 67 68 69 71 72 73 76 78 77 78 80 82 84 85 86 87 88 88 88 89 89 89 89 90 91 94 94 95 95 97 99 99 99 100 100 102 103 103 104 105 109 119 133 150 161 165 167 170 174 179 183 187 186 185 187 188 193 198 198 198 199 201 203 207 208 207 208 212 213 217 224 225 223 225 231 231 227 208 194 177 157 146 140 137 129 127 127 127 127 127 127 127 127 127 127 127 127 127 127 127 127 127 127 127 127 127 127 127 127 127 127 127 127 127 127 127 127 127 127 127 127 127 127 127 127 127 127 127 127 127 127 127 127 127 127 127 127 127 127 127 127 127 127 127 127 127 127 127 127 140 161 176 193 208 221 231 246 250 255 255 255 255 255 253 249 246 241 231 229 225 223 223 224 229 233 236 239 241 242 241 243 241 239 238 238 239 244 251 255 255 255 255 255 255 255 255 255 255 255 255 255 255 255 255 255 255 255 255 249 241 233 228 222 219 217 217 216 213 209 204 199 193 187 180 172 164 159 153 148 144 141 140 143 147 148 147 143 140 143 144 145 144 141 136 131 124 119 115 112 110 109 108 105 100 94 89 84 79 73 67
55 61 67 70 69 66 63 63 64 68 71 76 82 87 89 90 88 86 84 83 81 77 72 69 69 69 70 71 71 73 75 80 85 83 82 83 85 87 88 89 90 90 91 91 91 91 91 91 92 93 94 94 95 96 97 98 98 99 100 101 101 102 103 105 110 120 135 148 157 163 165 167 169 170 172 177 180 181 182 183 186 191 200 203 200 198 198 199 202 203 203 205 205 206 211 217 219 219 220 221 222 223 223 218 202 189 180 172 172 166 148 130 127 127 127 127 127 127 127 127 127 127 127 127 127 127 127 127 127 127 127 127 127 127 127 127 127 127 127 127 127 127 127 127 127 127 127 127 127 127 127 127 127 127 127 127 127 127 127 127 127 127 127 127 127 127 127 127 127 127 127 127 127 138 168 186 190 193 199 215 236 253 255 255 255 255 255 253 250 247 242 234 226 225 221 218 218 222 226 231 235 238 240 239 239 240 238 236 235 235 235 238 243 249 255 255 255 255 255 255 255 255 255 255 255 255 255 255 255 255 255 255 249 241 233 227 221 216 211 207 205 203 202 201 198 192 186 180 175 169 163 160 156 151 144 139 136 134 136 139 142 140 138 143 148 149 146 141 135 130 124 121 119 118 116 114 112 110 106 101 97 93 88 81 73
50 57 66 72 76 73 68 65 64 65 68 70 72 77 81 85 90 95 99 102 103 99 91 84 78 74 72 72 74 75 77 79 83 85 86 86 87 88 90 90 91 91 92 92 93 93 93 93 94 95 95 96 97 98 99 99 99 100 102 104 107 109 111 115 123 133 141 148 154 160 162 161 160 161 162 165 168 172 177 181 187 196 204 206 201 195 195 196 199 199 198 198 198 204 210 212 213 214 213 208 207 210 214 219 223 218 209 203 204 193 173 150 138 132 132 132 130 128 127 128 133 128 127 127 127 127 127 128 126 127 128 127 127 127 127 127 127 127 127 127 127 127 127 127 127 127 127 127 127 127 127 127 127 127 127 127 127 127 127 127 127 127 127 127 127 127 127 127 127 127 127 127 136 165 184 185 183 183 190 202 220 237 251 255 255 255 255 251 247 243 239 229 220 217 214 212 216 220 224 229 232 233 235 236 237 239 235 233 232 232 233 235 239 242 246 251 255 255 255 255 255 255 255 255 255 255 255 255 255 255 255 251 242 235 229 223 217 212 207 201 196 194 193 194 194 190 184 178 173 168 163 158 154 151 147 140 135 132 129 130 131 132 135 142 153 159 155 147 139 134 129 125 124 123 120 117 115 113 110 106 102 98 93 86 77
42 50 61 70 78 77 72 68 66 65 66 66 67 70 74 78 83 89 94 99 104 108 107 102 95 87 82 77 77 78 79 79 81 84 86 86 87 88 90 90 90 91 93 93 94 94 95 95 95 96 97 97 98 98 100 101 101 102 105 108 114 119 123 126 136 142 144 142 146 152 156 154 151 154 158 162 165 171 174 178 183 192 203 206 201 192 189 191 193 191 190 190 191 197 204 204 202 203 203 202 204 209 215 219 223 226 228 227 223 213 211 187 173 161 165 160 162 155 154 153 160 146 142 135 129 127 129 134 140 140 142 146 130 127 127 127 127 127 127 127 127 127 127 127 127 127 127 127 127 127 127 127 127 127 127 127 127 127 127 127 127 127 127 127 127 127 127 127 127 127 131 143 166 185 184 180 176 176 183 198 212 226 235 245 253 255 253 248 243 238 231 221 214 211 205 210 215 217 218 223 226 228 231 234 236 236 232 231 230 231 232 233 234 237 240 243 247 254 255 255 255 255 255 255 255 255 255 255 255 255 253 245 237 231 225 219 213 208 204 198 192 187 184 184 186 187 185 179 172 166 162 158 154 149 146 141 135 130 126 127 127 128 131 140 154 164 159 149 140 135 131 128 126 124 122 119 117 115 112 109 105 100 95 88 83
33 44 57 68 77 80 78 73 69 67 66 66 67 68 70 74 78 82 87 90 93 98 102 106 109 102 94 89 86 83 81 81 82 83 85 85 85 85 86 87 88 90 93 94 95 95 96 96 96 97 98 98 99 101 102 103 104 107 112 115 120 125 132 138 141 142 140 138 139 142 146 147 151 153 156 159 161 165 171 177 180 185 194 202 199 188 182 182 183 182 181 182 185 187 191 192 192 195 197 200 204 208 212 215 221 226 229 230 230 230 229 224 218 198 197 192 198 198 191 194 195 191 186 167 158 147 151 158 168 173 170 167 145 134 127 127 127 127 127 127 127 127 127 127 127 127 127 127 127 127 127 127 127 127 127 127 127 129 127 127 127 127 130 134 131 129 130 137 144 152 164 184 207 193 180 174 171 171 175 188 206 216 221 228 238 247 248 245 240 233 223 213 210 206 199 200 205 207 210 216 223 227 230 231 231 231 230 228 227 226 228 229 230 233 235 238 242 248 255 255 255 255 255 255 255 255 255 255 255 255 251 242 236 230 224 216 208 202 197 192 187 182 177 177 179 181 182 180 175 168 162 159 156 151 145 139 132 127 124 124 124 125 126 132 141 146 146 142 137 134 131 128 126 124 123 120 117 115 112 109 104 99 95 92 93
24 35 50 65 72 78 83 81 74 69 67 66 67 68 71 75 79 81 83 85 87 89 93 99 105 108 105 102 102 99 94 91 88 86 84 81 81 82 83 85 89 91 93 95 95 96 96 97 97 97 98 99 100 102 104 107 108 110 116 120 125 130 134 136 137 137 137 137 137 138 142 147 150 153 154 155 157 159 163 171 176 178 183 191 194 184 179 176 176 176 176 179 183 185 187 188 190 193 199 201 201 205 210 216 220 222 224 225 227 231 231 230 228 223 219 217 219 225 227 233 238 238 216 201 185 190 187 185 196 200 197 184 166 152 133 127 127 127 127 127 127 127 127 127 127 127 127 127 127 127 127 127 127 127 127 127 127 127 132 131 135 142 160 174 160 157 159 173 188 195 202 232 219 193 177 171 167 166 168 175 194 206 211 214 220 230 237 237 236 228 221 212 207 202 194 186 180 185 197 209 220 226 227 228 228 226 227 224 223 223 223 223 226 231 235 238 241 245 251 255 255 255 255 255 255 255 255 255 255 255 255 248 240 232 224 216 207 197 190 185 180 176 173 171 172 175 176 176 174 170 164 160 156 153 147 140 131 125 123 122 120 119 119 121 126 130 132 131 128 127 126 124 123 122 120 118 113 109 108 106 102 101 100 100 100
11 24 40 56 63 70 79 84 81 74 70 68 67 69 73 79 83 86 86 87 88 89 91 95 100 104 107 108 109 111 111 107 98 86 80 78 78 79 80 84 89 91 93 94 95 96 97 98 98 98 98 99 101 104 107 110 113 116 119 123 128 131 132 132 134 135 136 136 137 139 144 149 152 152 153 153 154 156 159 165 171 173 176 179 184 181 176 173 171 171 174 181 183 183 184 187 188 190 194 194 196 200 204 210 212 215 220 223 226 230 231 228 226 226 225 218 214 221 216 219 229 250 251 236 231 229 225 224 229 230 225 205 186 170 151 132 127 127 127 127 127 127 127 127 127 127 127 127 127 127 127 127 127 127 127 127 127 127 138 157 173 190 201 228 222 212 219 239 255 255 255 254 222 194 177 168 164 163 163 166 180 197 204 206 208 210 214 214 214 215 209 201 196 190 184 169 166 176 192 203 214 222 225 225 223 221 221 220 219 219 217 221 226 228 229 229 230 232 239 246 248 248 249 252 254 254 253 253 253 252 250 247 243 236 226 217 209 200 187 179 175 173 171 169 167 168 170 171 170 169 165 161 157 154 149 142 132 125 122 121 117 113 111 112 115 117 118 118 119 119 118 116 112 108 107 106 104 104 103 102 103 105 106 106 104
0 9 26 42 48 55 66 76 81 77 73 71 68 69 72 77 83 89 90 90 92 93 93 95 100 106 113 119 121 119 116 113 101 87 79 75 74 75 77 78 80 87 91 93 94 96 98 99 99 99 99 101 103 108 112 116 119 121 121 124 126 127 127 129 134 135 135 136 138 141 145 150 151 149 149 149 150 155 159 165 170 173 176 178 179 178 174 169 166 169 172 179 180 179 180 182 184 182 182 185 189 193 196 200 206 213 220 223 225 230 228 224 223 222 221 219 209 213 208 209 218 234 255 255 255 255 255 255 255 255 251 227 204 182 166 151 135 128 127 127 127 127 127 127 127 127 127 127 127 127 127 127 127 127 127 127 127 131 148 169 192 212 234 255 255 255 255 255 255 255 255 255 234 202 178 167 162 160 160 160 167 186 196 199 197 187 181 178 180 181 186 185 183 177 170 159 163 181 197 205 214 222 224 223 220 217 214 213 211 212 216 221 223 222 219 219 216 214 220 230 237 239 244 252 253 251 248 245 244 243 243 242 239 236 230 222 214 207 196 184 176 172 169 169 167 165 166 167 167 167 165 161 156 153 148 141 133 126 123 119 114 108 106 109 114 115 114 114 114 113 112 109 106 103 101 99 99 98 98 100 102 103 103 101 100
0 0 7 17 29 44 53 66 74 76 76 75 72 70 71 75 81 87 89 89 91 92 91 93 98 103 109 116 124 124 117 113 105 93 81 73 70 70 72 71 71 73 79 86 92 95 96 97 98 99 100 102 104 107 111 115 117 117 116 117 119 122 123 126 131 132 133 134 135 136 139 143 145 143 139 138 145 154 160 164 168 171 173 176 178 171 166 163 162 165 168 171 170 171 171 171 171 171 174 180 185 190 196 200 204 212 219 222 226 228 225 220 218 217 216 216 204 202 203 202 210 223 241 255 255 255 255 255 255 255 255 239 216 199 187 172 160 146 140 133 134 129 127 127 127 127 127 127 127 127 127 127 127 127 127 127 129 141 161 181 201 226 255 255 255 255 255 255 255 255 255 255 242 211 184 168 162 159 158 158 159 166 175 174 169 160 157 156 155 156 157 161 162 158 154 153 166 181 197 201 209 220 223 223 218 210 202 198 202 209 214 217 220 221 213 207 204 199 201 210 219 228 231 237 239 239 238 236 235 236 236 236 234 232 229 226 221 213 207 198 186 177 170 167 165 164 163 163 163 164 163 160 154 149 145 140 133 126 120 115 110 105 103 106 111 114 113 114 115 114 112 111 109 107 103 98 95 93 91 92 93 91 90 88 87
0 1 2 5 14 27 43 60 71 79 82 84 81 75 73 74 76 79 82 85 88 88 88 89 92 96 99 103 107 107 105 103 97 89 81 72 67 67 68 68 69 70 71 72 80 92 94 93 95 98 100 102 107 110 112 113 114 113 113 114 116 118 119 122 123 126 128 129 130 133 136 140 141 137 132 132 141 151 157 161 165 169 172 172 169 162 160 157 157 158 158 159 161 161 161 163 166 168 174 180 185 189 195 201 208 214 217 220 226 228 222 217 214 214 211 210 195 187 195 196 201 211 226 250 255 255 255 255 255 255 255 247 229 212 198 188 178 173 165 158 163 158 142 130 131 129 127 127 127 127 127 127 127 127 127 129 140 158 175 193 214 245 255 255 255 255 255 255 255 255 255 255 247 226 193 172 162 159 158 157 156 155 155 154 152 151 151 150 150 150 151 151 151 150 149 149 155 163 180 183 193 210 220 220 216 205 193 189 190 194 201 210 215 216 209 198 193 187 185 194 210 216 215 218 220 222 223 223 225 228 231 231 230 227 225 222 219 213 208 204 198 189 178 169 165 163 161 159 159 160 161 157 151 144 141 138 132 124 117 111 105 101 99 104 110 111 109 109 112 114 115 118 116 110 105 101 98 96 92 86 81 77 76 74 72
0 1 3 4 6 13 25 42 62 78 88 91 90 84 80 76 76 77 80 83 86 86 85 85 85 86 88 89 90 90 89 87 82 75 71 68 66 66 67 67 68 69 70 71 73 78 80 82 90 99 103 109 112 109 109 110 109 108 108 112 116 117 115 115 117 120 123 125 127 128 130 133 135 131 127 130 137 148 157 161 164 167 169 169 164 156 153 149 147 147 148 151 156 159 157 160 165 171 177 182 187 192 199 205 208 213 219 222 226 229 222 213 209 206 201 199 187 179 184 187 191 202 215 234 251 255 255 255 255 255 255 255 255 232 218 207 197 188 182 178 176 173 159 155 159 151 147 147 142 136 132 132 139 151 144 148 158 178 195 210 230 255 255 255 255 255 255 255 255 255 255 255 249 239 216 184 166 161 159 157 156 155 153 152 151 150 149 149 148 148 148 148 148 147 146 146 147 148 151 156 171 193 209 212 208 202 190 178 173 176 185 195 204 206 201 192 184 179 177 185 201 202 199 202 206 208 209 211 214 218 223 226 225 223 221 218 213 208 201 196 192 187 180 173 168 165 161 156 153 154 153 150 144 138 135 133 128 121 114 107 103 98 98 104 105 106 105 103 101 103 109 116 117 109 103 102 103 105 101 93 85 77 71 66 64
1 2 3 5 9 11 14 20 37 58 76 88 95 95 88 80 79 81 84 86 87 86 82 79 77 77 77 76 75 74 72 68 67 67 66 66 66 66 66 67 68 69 70 71 72 74 74 75 78 90 104 108 103 99 101 102 100 99 101 105 109 110 108 108 112 116 118 119 120 122 123 126 127 124 121 125 133 144 152 159 162 164 166 169 161 153 147 145 142 143 145 148 155 156 155 161 170 176 181 187 192 196 199 205 210 216 221 224 226 228 224 214 206 199 196 191 188 175 177 181 182 190 204 223 245 255 255 255 255 255 255 255 255 255 246 235 224 214 206 200 193 189 183 191 195 191 193 183 171 164 168 185 211 220 201 195 199 221 254 255 255 255 255 255 255 255 255 255 255 255 255 255 247 238 225 201 177 163 159 158 156 155 154 153 151 150 149 148 147 147 146 146 146 144 142 143 144 144 145 146 149 162 181 195 197 192 188 176 165 166 176 185 195 200 196 189 180 173 172 177 187 187 184 188 194 196 197 200 205 210 213 215 216 217 215 211 205 200 195 189 181 173 167 161 157 154 153 152 149 141 141 138 135 131 130 128 124 119 114 109 104 96 95 97 98 100 100 96 93 93 96 99 101 100 96 98 106 115 110 99 90 81 75 67 62
0 2 3 5 8 11 13 14 18 32 52 70 85 89 85 84 87 93 95 94 93 90 84 79 74 69 67 65 64 63 62 62 64 65 65 65 65 65 67 68 68 69 69 70 72 73 73 72 73 77 86 92 92 92 92 92 92 91 93 95 96 97 98 99 102 109 112 112 112 112 113 114 118 117 112 113 120 136 145 151 158 162 165 165 157 149 143 142 140 142 144 145 148 150 157 162 173 176 179 184 188 192 197 203 209 215 220 221 221 222 220 210 200 196 193 189 181 172 171 173 176 186 200 218 238 255 255 255 255 255 255 255 255 255 255 255 255 255 236 227 219 217 220 233 238 233 231 213 218 224 227 227 229 230 234 243 255 255 255 255 255 255 255 255 255 255 255 255 255 255 255 255 247 237 226 213 197 177 164 159 157 155 154 153 152 151 150 148 147 146 144 144 143 142 140 140 141 142 142 142 143 145 158 176 185 175 170 168 162 157 167 174 185 193 192 186 178 171 168 169 174 173 173 180 186 183 184 189 194 196 198 199 201 204 205 200 192 186 184 180 173 163 155 151 146 141 138 136 135 133 129 128 125 124 123 122 120 116 112 108 105 101 95 89 88 91 91 89 87 87 87 86 85 85 85 88 95 102 102 96 87 81 76 72 67
0 0 4 6 8 10 13 15 17 20 30 43 56 67 72 80 90 97 95 92 92 88 81 71 63 59 58 58 59 60 60 62 63 64 64 64 64 64 64 65 66 67 64 62 64 66 68 70 72 74 76 79 81 83 84 86 87 87 89 90 90 92 94 95 98 104 108 106 105 106 106 106 108 109 107 107 109 117 132 142 150 158 162 160 152 144 141 140 139 140 142 142 142 150 155 158 168 176 181 185 189 192 196 200 205 210 215 218 219 219 214 199 189 189 184 181 174 169 167 169 173 183 197 217 239 255 255 255 255 255 255 255 255 255 255 255 255 255 255 255 253 253 255 255 255 255 255 255 249 232 225 223 223 224 228 239 255 255 255 255 255 255 255 255 255 255 255 255 255 255 255 255 251 241 231 225 217 208 196 180 166 160 158 158 156 154 152 149 146 145 143 142 142 140 139 137 137 138 138 139 139 140 145 163 169 158 152 150 149 148 158 166 176 184 184 181 175 169 164 162 162 162 164 169 171 170 171 176 180 181 182 183 184 187 189 189 180 175 171 167 163 159 153 145 139 134 129 128 128 126 122 119 118 117 115 114 113 111 108 105 102 100 97 89 81 80 82 81 81 82 82 80 77 76 76 78 80 84 86 85 80 75 71 71 70
0 0 0 1 6 11 14 15 17 19 24 27 34 47 57 67 78 87 82 76 79 76 63 55 53 51 45 45 49 48 48 56 60 62 63 61 56 54 56 57 58 60 65 68 70 72 73 75 76 78 79 81 83 85 86 86 87 88 90 91 91 92 94 94 96 100 104 102 102 101 101 102 102 102 103 104 106 108 117 130 141 149 154 153 146 140 139 139 138 136 137 138 140 143 147 155 168 175 179 184 188 191 193 197 202 209 214 217 219 217 205 190 180 178 176 173 171 168 165 165 169 178 194 219 245 255 255 255 255 255 255 255 255 255 255 255 255 255 255 255 255 255 255 255 255 255 255 255 247 229 220 216 216 219 224 237 255 255 255 255 255 255 255 255 255 255 255 255 255 255 255 255 255 249 240 232 226 220 209 201 191 178 171 170 170 167 162 155 147 145 143 141 140 139 137 136 135 134 135 136 136 137 138 143 148 144 141 140 138 143 150 158 166 172 174 173 170 167 163 159 157 155 155 158 158 157 159 161 164 166 166 167 168 170 172 174 169 164 159 156 156 154 148 141 135 132 128 125 123 121 118 114 110 109 108 106 104 102 100 98 96 94 90 87 81 74 74 74 74 75 75 74 72 70 69 69 70 72 73 73 70 67 65 65 67
5 6 6 3 0 0 9 14 16 20 24 25 27 33 41 49 57 65 67 65 65 56 46 43 39 37 44 50 49 52 51 48 49 50 52 53 58 63 64 65 67 68 69 70 71 72 74 75 77 79 80 82 83 84 85 87 89 90 90 90 91 91 92 93 95 97 99 99 99 99 97 98 100 103 103 104 105 107 111 118 124 129 133 137 137 136 136 136 135 133 134 137 140 143 147 155 166 171 174 179 184 190 195 198 203 211 217 221 221 217 206 185 179 178 175 173 167 165 162 162 165 175 192 217 248 255 255 255 255 255 255 255 255 255 255 255 255 255 255 255 255 255 255 255 255 255 255 255 242 225 213 207 209 211 220 238 255 255 255 255 255 255 255 255 255 255 255 255 255 255 255 255 255 255 247 237 228 221 212 206 200 195 193 190 187 182 173 163 149 143 142 140 138 137 136 135 134 131 130 130 132 133 134 135 136 136 136 136 135 138 144 150 156 161 162 162 161 161 162 161 156 151 148 148 148 149 149 149 150 152 153 155 157 159 161 162 159 155 152 151 152 150 145 139 133 129 126 124 121 119 117 111 108 106 103 100 98 95 92 90 88 87 85 83 80 74 68 68 69 69 69 68 66 64 63 62 62 62 63 63 62 61 60 61 63
6 8 10 11 12 12 2 0 1 13 22 25 27 29 33 36 39 46 49 47 44 34 29 36 43 48 51 54 55 56 57 57 59 60 60 61 62 63 65 66 67 68 69 70 71 72 74 76 77 79 80 81 83 84 85 86 88 89 90 89 90 90 92 93 95 97 98 97 97 93 96 100 102 103 104 104 106 107 111 116 119 120 126 134 137 133 133 133 132 130 132 137 141 144 149 156 163 166 172 177 183 189 194 197 201 209 216 218 216 210 196 183 172 168 168 167 162 160 160 160 162 170 188 210 245 254 255 255 255 255 255 255 255 255 255 255 255 255 255 255 255 255 255 255 255 255 255 255 235 218 206 201 201 205 218 237 252 255 255 255 255 255 255 255 255 255 255 255 255 255 255 255 255 255 249 240 234 226 218 212 208 206 205 202 200 196 190 178 161 145 141 139 138 136 135 134 132 129 128 127 127 128 129 131 132 133 133 133 132 135 139 144 146 148 149 149 150 151 154 157 155 149 147 145 144 144 143 143 143 144 145 146 147 148 150 151 151 151 152 150 149 148 145 140 134 130 127 125 123 119 115 109 105 103 102 100 98 97 95 91 86 81 78 78 77 71 67 63 64 65 66 65 62 61 59 58 58 58 58 58 57 57 59 60 62
9 10 11 13 14 15 16 17 16 8 7 16 24 27 30 31 27 27 28 23 26 33 43 47 49 50 52 54 55 57 58 59 59 60 61 61 62 63 64 65 66 68 69 70 71 73 74 76 78 79 80 81 82 83 84 85 87 88 88 88 89 90 91 93 94 94 90 92 89 86 97 100 101 102 103 104 106 109 116 117 116 118 121 127 136 131 130 130 129 127 129 133 139 145 151 157 162 165 168 173 177 183 187 192 197 204 209 212 209 201 190 184 173 162 162 161 158 157 157 158 160 166 183 205 232 243 249 255 255 255 255 255 255 255 255 255 255 255 255 255 255 255 255 255 255 255 255 251 230 212 202 197 195 198 209 227 240 251 255 255 255 255 255 255 255 255 255 255 255 255 255 255 255 255 251 245 237 229 222 216 213 211 208 205 203 201 195 184 162 144 140 138 136 135 133 132 131 129 127 126 124 125 126 127 129 130 130 130 130 135 136 137 137 137 137 139 140 141 144 146 148 146 145 144 142 141 140 140 140 139 139 139 140 140 141 143 146 151 155 156 154 150 145 142 137 133 130 127 125 121 117 112 108 105 102 100 96 96 95 92 89 83 77 71 68 64 62 61 58 61 62 62 61 59 56 56 56 56 57 57 55 56 57 59 62
11 12 14 15 16 17 18 19 21 22 21 15 11 9 15 19 23 25 28 35 41 43 45 47 50 51 52 54 55 57 58 59 60 60 61 61 62 62 63 65 66 67 69 70 71 73 75 77 78 80 81 82 82 83 84 85 86 87 87 88 89 90 91 92 91 84 82 77 86 93 96 99 101 102 103 104 106 110 115 114 114 116 118 123 131 127 126 126 124 124 126 132 137 147 154 158 160 161 165 169 175 183 188 193 198 205 210 211 205 194 185 180 169 156 156 156 154 154 156 157 158 163 177 201 224 235 243 247 252 255 255 255 255 255 255 255 255 255 255 255 255 255 255 255 255 255 250 232 220 207 196 192 189 191 195 205 222 240 252 255 255 255 255 255 255 255 255 255 255 255 255 255 255 255 251 245 238 231 224 221 217 213 208 203 200 197 191 180 160 143 138 137 135 134 132 131 130 128 127 126 123 122 124 125 126 127 127 127 129 134 132 129 128 126 127 129 129 131 134 138 142 145 146 144 142 141 140 139 138 137 136 136 135 135 136 139 144 150 156 163 165 158 150 145 140 136 133 130 126 122 117 112 108 105 102 99 95 93 92 91 87 83 79 74 68 65 63 61 59 54 57 59 59 57 56 56 55 54 54 53 54 57 62 67 70
13 14 15 17 18 19 20 21 22 23 24 26 26 20 12 11 24 33 37 41 42 43 45 47 50 51 52 53 55 56 57 59 59 60 60 60 61 63 64 65 66 68 69 69 71 72 74 76 77 79 81 81 81 81 82 83 85 86 86 88 90 90 90 91 90 80 69 82 95 98 99 100 101 102 103 104 105 107 109 111 113 116 117 119 120 122 122 121 121 122 125 129 138 149 152 155 156 159 164 169 176 185 189 194 198 204 212 213 199 185 178 172 159 154 152 152 151 153 154 155 156 159 171 193 215 231 236 241 253 255 255 250 253 255 253 252 255 255 255 255 255 255 255 255 255 249 231 219 213 207 195 188 184 185 187 191 205 228 244 253 255 255 255 255 255 255 255 255 255 255 255 255 255 255 255 248 240 234 229 225 220 214 207 200 194 186 179 168 155 142 137 136 135 133 131 130 129 127 126 125 123 120 120 122 123 124 124 125 128 135 135 129 125 124 123 123 124 124 127 136 144 150 150 146 144 142 141 140 138 136 135 133 131 130 133 136 140 146 153 162 168 164 156 147 141 137 134 130 125 121 116 111 106 103 99 96 93 91 90 88 87 85 80 76 71 67 62 59 56 52 52 57 57 56 53 53 52 51 51 51 55 64 74 82 86
14 15 16 18 19 20 21 22 23 24 26 27 28 29 29 23 16 13 17 19 22 29 37 43 47 48 50 52 53 54 55 56 57 58 58 59 60 62 63 64 66 67 68 69 70 71 72 74 76 77 78 78 78 78 79 79 80 81 83 85 88 88 88 87 83 70 75 92 96 98 99 100 101 102 103 104 105 106 107 109 111 114 116 116 117 118 118 118 119 120 125 132 140 143 141 144 151 158 162 169 177 183 186 190 196 202 210 210 194 182 175 166 155 151 150 149 150 151 152 153 154 156 166 188 208 226 231 239 251 253 249 243 248 249 247 247 252 255 255 255 255 255 255 255 252 236 219 213 211 208 200 190 183 181 181 183 193 213 235 246 255 255 255 255 255 255 255 255 255 255 255 255 255 255 255 251 244 239 235 231 226 219 210 203 194 181 170 160 150 142 137 135 133 131 129 128 127 126 125 124 122 119 117 119 121 121 122 121 125 136 139 133 126 123 121 121 121 123 127 137 146 155 156 150 147 145 143 141 140 138 136 133 130 128 130 132 136 140 148 153 157 158 155 149 144 139 135 132 127 121 116 111 107 102 97 93 91 89 88 87 86 84 80 76 72 68 65 61 57 54 49 50 51 53 52 50 49 49 49 51 56 67 80 95 106
14 16 17 18 19 20 21 22 24 25 27 28 30 32 33 36 36 33 32 33 32 24 20 19 25 35 45 41 36 36 36 35 42 52 55 56 58 60 62 63 64 65 66 67 68 69 70 69 68 65 62 56 57 62 65 62 60 59 63 72 78 81 81 67 63 72 88 92 95 97 99 100 101 102 103 104 104 105 106 106 107 109 111 112 113 114 115 117 118 120 127 136 138 135 135 141 149 153 158 166 174 179 184 188 194 201 210 206 191 181 175 165 154 150 148 147 148 150 151 152 152 153 168 186 203 219 231 236 241 245 242 237 240 240 240 244 250 254 254 253 255 255 255 255 251 233 216 211 209 208 205 197 188 180 177 178 185 200 222 237 249 255 255 255 255 255 255 255 255 255 255 255 255 255 255 253 249 244 238 234 230 225 217 207 195 184 175 166 155 146 140 137 132 130 128 127 126 125 124 122 120 118 115 117 118 119 119 119 120 129 138 137 129 123 120 119 119 120 127 138 149 158 159 159 154 148 145 143 142 139 137 136 134 128 125 126 130 134 139 143 146 148 149 146 141 138 134 130 127 123 119 112 107 102 98 95 91 88 87 86 85 85 82 79 76 72 67 64 61 58 55 52 49 47 44 47 47 46 46 49 54 62 75 88 98
16 17 17 18 18 19 21 22 24 26 27 29 31 33 34 36 38 40 42 43 44 44 44 44 37 26 23 30 38 41 40 46 39 31 34 41 54 58 60 62 63 64 64 64 64 63 58 47 41 42 44 50 51 47 46 47 52 58 52 49 51 55 58 61 78 85 87 88 92 95 98 99 100 101 102 103 104 104 105 106 107 108 109 111 112 113 115 116 117 121 126 130 131 131 136 146 150 152 157 163 170 176 182 187 191 201 213 197 187 180 173 163 151 148 146 146 147 148 149 149 148 152 168 183 197 214 225 231 233 236 232 234 236 237 237 238 241 243 243 243 248 249 253 255 255 236 216 211 209 207 206 202 194 183 176 175 179 190 208 228 241 255 255 255 255 255 255 255 255 255 255 255 255 254 249 246 243 242 238 234 229 224 218 209 200 190 181 173 165 158 156 151 146 135 127 126 125 124 123 121 120 118 115 115 117 117 117 117 118 120 126 132 130 123 120 118 118 119 124 139 154 159 160 161 160 154 148 146 145 142 140 138 135 130 124 123 124 127 131 134 138 141 144 142 138 134 131 128 126 122 118 112 107 102 99 95 92 89 87 85 84 85 83 81 79 75 70 66 63 60 57 54 51 49 46 39 43 44 43 44 48 54 64 72 77
17 18 19 19 20 21 22 23 25 27 28 30 31 33 34 36 38 40 42 43 45 47 49 50 50 49 47 51 53 55 57 58 58 54 46 34 37 39 48 52 53 50 46 43 41 39 42 51 62 67 69 72 73 73 74 74 75 79 75 71 69 65 59 58 62 64 69 80 84 87 91 96 97 95 93 98 102 103 104 104 105 107 108 110 112 113 113 114 117 120 123 125 126 131 137 145 149 151 156 161 168 174 181 186 192 204 211 193 186 180 169 159 148 145 144 144 146 147 147 147 146 152 168 182 194 210 221 227 229 228 227 230 232 232 232 233 233 233 233 235 237 239 247 254 254 239 220 213 210 209 207 204 196 181 174 173 176 182 195 216 234 248 255 255 255 255 255 255 255 255 255 255 251 245 240 237 236 236 233 229 226 221 216 210 202 195 189 181 175 171 166 157 149 136 126 124 123 122 121 120 119 117 115 113 115 116 116 116 116 116 117 119 121 119 118 117 117 118 123 139 152 155 155 157 158 159 156 153 152 149 145 143 140 135 127 122 121 122 124 126 131 135 139 141 138 134 130 129 130 128 122 117 110 104 100 98 95 92 90 88 84 82 81 81 79 76 71 65 62 60 57 54 51 49 47 44 36 38 39 38 39 43 49 56 61
18 19 20 21 22 24 25 26 27 28 30 31 32 34 35 36 38 40 42 43 45 47 49 51 51 52 52 53 54 56 58 59 60 60 60 58 55 49 38 35 35 43 49 53 60 62 64 67 68 69 71 72 75 77 79 80 81 81 82 83 83 83 83 80 77 73 68 69 71 71 73 79 85 94 97 97 95 94 95 100 103 106 108 109 111 112 111 113 117 118 120 121 124 129 136 142 147 151 156 161 166 172 177 184 192 203 199 188 184 177 166 150 145 143 142 143 144 146 147 147 145 152 168 181 196 207 215 220 223 223 224 226 227 227 228 228 229 228 230 232 234 239 248 255 253 242 225 215 212 210 209 206 196 178 172 171 175 179 187 205 226 242 255 255 255 255 255 255 255 255 255 255 245 238 232 227 227 229 229 226 223 219 215 210 205 202 193 188 182 176 170 163 156 141 127 124 122 121 120 119 117 116 114 110 112 113 114 114 114 114 114 114 115 115 115 115 115 117 122 139 148 149 150 152 156 161 167 168 164 159 154 148 145 139 132 125 120 118 118 122 124 128 132 137 139 137 133 130 128 126 124 121 116 108 105 107 106 103 99 96 92 85 80 77 76 73 68 63 60 58 55 52 49 47 46 46 42 36 31 29 28 32 36 40 43
19 20 21 22 23 25 26 28 30 31 32 33 35 36 37 38 39 41 42 44 45 46 49 50 52 53 54 54 55 57 58 59 60 61 61 62 63 63 62 62 58 51 51 57 62 63 64 67 68 70 71 73 75 77 80 82 83 83 84 84 85 86 87 88 89 90 91 93 94 92 91 94 100 103 104 104 105 106 105 101 101 103 104 105 107 109 112 114 115 117 118 120 124 129 136 142 147 153 157 160 165 171 181 189 197 193 184 180 179 171 160 147 142 141 139 141 144 147 147 146 143 151 165 179 194 204 211 214 218 219 222 221 222 223 224 224 225 224 225 228 230 232 240 244 246 243 229 214 209 209 207 204 195 175 169 171 174 177 182 195 217 233 250 255 255 255 255 255 255 255 255 247 238 230 224 220 218 219 221 221 219 215 210 208 205 201 197 192 185 181 176 170 164 151 130 123 121 120 118 117 116 115 113 112 109 112 113 113 113 113 112 113 113 113 113 113 114 115 122 139 144 145 146 148 152 158 167 172 169 164 160 154 147 140 132 126 121 117 113 115 118 121 125 129 133 136 135 132 128 124 122 119 116 114 114 116 117 115 111 107 101 96 93 88 80 76 75 73 68 62 57 53 49 46 44 43 40 35 33 34 33 29 25 25 27
18 20 21 22 23 25 27 29 32 34 35 36 39 40 42 44 45 45 44 45 45 47 49 51 52 53 55 56 57 57 58 59 60 61 62 63 64 65 66 66 66 65 63 59 61 63 64 64 68 70 71 73 75 77 79 81 84 87 85 85 87 88 89 90 91 92 94 95 97 98 99 100 101 103 104 105 106 107 109 109 110 111 112 113 113 115 116 117 118 118 120 122 124 129 136 142 148 153 160 165 173 186 199 203 190 179 173 174 174 166 152 144 141 139 138 141 143 144 143 142 141 148 162 176 186 196 203 206 212 216 216 215 216 219 220 220 220 220 222 223 226 226 229 235 240 241 233 217 206 205 205 200 185 171 168 170 172 175 179 188 207 225 243 255 255 255 255 255 255 255 250 238 231 223 216 211 209 209 211 213 212 210 207 204 201 197 193 188 184 180 177 172 168 161 143 124 120 118 117 115 114 113 112 111 107 111 111 112 111 111 111 111 111 111 111 111 112 115 123 139 142 142 143 145 149 155 164 168 167 164 160 155 148 141 135 127 121 116 112 111 112 115 118 122 126 130 131 130 127 124 122 120 119 120 122 125 128 127 121 116 113 109 107 104 98 92 88 86 82 74 68 61 55 50 45 41 39 40 42 42 41 37 32 25 15
18 20 21 22 23 25 27 29 31 36 39 41 47 59 67 71 67 52 48 47 48 50 51 52 54 55 56 57 58 59 59 60 61 62 62 63 64 65 67 68 68 68 68 68 68 69 69 68 70 72 73 75 77 79 80 82 84 95 93 89 89 90 91 92 93 94 94 96 97 98 100 101 102 103 104 106 107 108 112 114 116 119 121 118 117 118 119 120 120 120 122 124 126 133 139 145 152 160 171 185 198 209 207 193 175 169 168 171 170 161 147 142 139 138 137 139 140 141 140 138 142 146 158 172 178 186 193 199 205 210 209 210 212 215 217 216 218 218 217 216 217 218 223 227 234 237 233 221 204 199 191 182 172 167 167 168 171 174 178 185 202 219 234 253 255 255 255 255 255 254 243 230 222 215 209 203 201 201 203 204 204 203 202 201 198 193 187 183 179 176 173 170 166 157 138 123 119 117 116 114 113 112 111 109 105 108 109 110 110 109 109 109 109 109 109 109 111 115 128 137 138 138 138 140 144 151 158 161 161 158 154 149 141 136 133 127 122 116 112 108 108 111 114 117 121 125 128 126 124 123 122 121 120 121 124 130 138 140 133 126 122 119 116 111 105 98 94 91 86 80 75 70 65 59 53 46 42 42 43 44 44 40 35 31 26
19 20 21 22 23 24 26 27 29 32 40 44 50 63 76 91 89 68 56 52 51 52 53 54 55 56 57 58 59 60 60 61 61 62 63 64 65 66 67 68 69 69 70 70 71 71 72 72 72 74 76 77 79 80 82 83 86 101 102 92 92 92 93 94 95 96 96 97 99 100 101 101 102 103 105 106 108 111 118 123 126 128 129 128 124 121 123 123 123 124 126 131 140 148 155 160 167 177 188 201 213 212 201 180 166 164 166 168 166 154 144 141 138 137 136 137 139 137 136 138 142 147 156 167 174 179 185 195 197 201 205 209 209 208 210 212 215 214 214 212 212 214 219 226 231 231 225 211 197 183 172 170 167 165 166 168 170 173 176 183 199 213 227 244 255 255 255 255 255 244 232 221 212 207 202 196 194 192 194 194 194 193 193 193 192 189 184 180 176 171 169 167 163 158 146 129 120 117 115 113 112 111 110 109 104 108 108 109 108 108 108 108 108 108 107 108 111 121 132 134 134 133 133 134 137 142 147 150 151 149 145 140 135 132 131 130 128 123 116 110 104 104 109 113 118 123 126 124 121 119 117 116 116 117 120 127 136 142 138 131 125 120 116 112 108 103 99 94 88 81 76 72 68 64 57 51 44 41 41 41 40 38 34 30 27
20 20 21 22 22 23 23 24 25 27 36 48 51 60 71 83 90 84 70 61 57 56 55 56 56 57 58 59 60 61 61 62 62 63 63 64 65 66 67 67 69 70 71 71 72 74 75 74 74 74 77 80 82 83 84 85 91 109 105 96 94 94 94 95 96 97 98 99 100 101 102 102 102 103 105 107 109 111 116 123 128 130 132 133 128 124 125 127 130 135 145 153 161 167 173 180 184 189 197 205 209 200 182 164 158 160 163 164 158 150 143 140 138 136 135 135 135 134 135 137 141 149 157 165 172 178 184 193 193 196 203 206 205 203 204 208 209 210 211 210 210 211 216 222 227 226 218 202 189 171 164 165 164 164 166 169 170 172 175 183 197 209 222 237 254 255 255 255 245 232 222 212 205 200 195 191 187 183 184 185 184 184 182 181 181 180 178 173 167 161 158 156 155 153 150 145 129 117 114 113 111 110 109 108 103 106 108 108 108 107 106 106 106 106 106 106 109 121 128 129 128 128 128 128 129 132 135 138 139 138 136 133 130 127 126 127 129 128 124 117 109 104 100 107 115 121 124 122 117 114 111 109 108 109 113 119 126 131 133 130 125 120 116 114 112 110 107 100 92 83 77 72 67 61 56 51 47 42 40 38 36 34 31 28 25
19 20 20 21 22 22 22 23 23 24 29 45 56 59 67 75 83 89 85 76 68 63 62 61 58 58 59 60 61 62 62 62 63 63 64 65 66 66 67 68 69 71 72 73 76 80 80 77 77 77 78 82 88 89 87 89 103 112 102 98 98 98 98 99 99 102 105 108 106 103 104 104 104 105 107 109 112 120 130 133 136 136 137 137 132 129 131 134 141 149 157 161 164 170 179 189 197 201 205 200 193 184 162 152 149 152 158 160 153 146 141 139 137 135 134 134 133 132 133 137 141 149 157 165 171 176 180 184 186 192 197 200 199 196 201 203 206 206 208 206 204 206 210 216 220 220 210 195 175 163 160 161 161 163 165 168 169 172 176 185 197 206 219 233 250 255 255 254 240 226 216 207 201 195 190 184 178 174 172 173 172 171 169 168 167 167 166 162 154 146 144 142 143 146 147 146 136 119 114 112 110 109 108 108 106 100 106 107 106 105 104 104 104 104 104 104 106 116 123 124 123 123 123 122 121 122 125 128 128 127 125 123 120 119 118 119 120 122 125 121 114 106 101 98 111 119 123 120 115 109 105 100 98 100 105 111 118 129 132 131 126 119 117 117 117 116 113 107 99 89 81 74 68 60 55 51 47 43 39 36 34 32 30 27 24
